ply
format ascii 1.0
element vertex 682
property float x
property float y
property float z
property float nx
property float ny
property float nz
property float label
element face 0
property list uchar int vertex_indices
end_header
-36.505600 21.500500 -733.766113 -0.016765 0.380437 0.924655 2.000000
-36.504902 25.899900 -735.117615 0.095792 0.428980 0.898220 2.000000
-36.504002 29.514299 -735.652222 0.080461 0.054008 0.995293 2.000000
-36.502201 22.918100 -734.341675 -0.119915 0.110417 0.986625 2.000000
-36.502102 40.503502 -738.223206 0.525453 0.475410 0.705609 2.000000
-36.501099 43.239101 -731.234802 -0.054561 0.145110 -0.987910 1.000000
-36.500702 45.044998 -727.427490 0.425216 0.137946 -0.894518 1.000000
-36.500301 23.726101 -734.577515 0.261984 0.722442 0.639877 2.000000
-36.499100 13.379200 -731.749573 -0.959170 0.179098 -0.218898 1.000000
-36.498199 25.227699 -729.429993 0.195796 0.089894 -0.976516 1.000000
-36.495399 35.979198 -728.562500 0.205032 0.111950 -0.972332 1.000000
-36.495399 44.598000 -727.483582 -0.697754 0.237835 0.675703 1.000000
-36.494499 38.298698 -728.269287 0.329943 0.126274 -0.935517 1.000000
-36.493999 30.016399 -729.168579 -0.240543 0.835007 -0.494876 1.000000
-36.492100 27.715200 -735.569580 -0.068199 0.869881 -0.488525 2.000000
-36.490002 17.811300 -733.482300 0.257096 0.749205 0.610405 2.000000
-36.489700 32.197701 -736.058228 0.160307 0.984406 -0.072435 2.000000
-36.488201 25.517401 -732.330811 -0.660567 0.223312 0.716786 1.000000
-36.486801 33.844898 -731.662720 -0.620627 0.094919 -0.778339 1.000000
-36.485901 29.666800 -735.929993 -0.374547 0.214235 -0.902119 2.000000
-36.485199 41.180099 -731.442871 -0.544097 0.102469 -0.832742 1.000000
-36.482399 41.703300 -727.843811 -0.418025 0.856103 -0.303878 1.000000
-36.482101 28.463699 -735.762207 -0.035156 0.971022 -0.236391 2.000000
-36.480202 16.788200 -730.844727 0.320705 0.008735 0.947139 1.000000
-36.480099 27.595699 -735.301270 -0.235124 0.116920 -0.964908 2.000000
-36.479599 13.401000 -732.070801 -0.971673 0.062808 0.227832 1.000000
-36.478600 13.699600 -732.088928 -0.987312 0.093187 0.128575 1.000000
-36.478500 14.007400 -731.427795 -0.956591 0.202021 -0.210049 1.000000
-36.478500 41.719299 -731.427185 -0.590217 0.055200 -0.805355 1.000000
-36.478001 38.943401 -731.531921 -0.639283 0.432309 -0.635945 1.000000
-36.477798 39.163502 -737.586670 0.014793 0.162720 0.986561 2.000000
-36.477402 22.914200 -729.790222 -0.379129 0.488835 -0.785685 1.000000
-36.477299 44.343601 -731.226990 -0.171279 0.036120 -0.984560 1.000000
-36.476601 49.869999 -730.689880 0.012700 0.185877 -0.982491 1.000000
-36.474701 50.261101 -730.670105 0.138155 0.285700 0.948308 1.000000
-36.474300 21.996201 -733.851685 -0.055075 0.160538 0.985492 2.000000
-36.472801 18.201599 -732.054077 -0.399188 0.470298 0.787063 1.000000
-36.472500 51.653801 -730.467529 0.142630 0.078977 -0.986620 1.000000
-36.471600 36.535900 -736.322083 0.289268 0.283453 0.914319 2.000000
-36.471298 33.727402 -736.385620 -0.158853 0.197598 -0.967327 2.000000
-36.470600 22.694901 -734.094421 0.073125 0.354987 0.932007 2.000000
-36.469799 38.475700 -731.579590 -0.749904 0.073690 -0.657430 1.000000
-36.469799 33.353600 -728.718384 0.780940 0.623911 -0.029443 1.000000
-36.468601 17.408100 -730.906921 -0.862714 0.230358 -0.450177 1.000000
-36.468201 28.566799 -729.229004 -0.069487 0.103661 -0.992182 1.000000
-36.467999 14.869500 -731.184814 -0.227832 0.785788 -0.575005 1.000000
-36.467499 24.524900 -734.675110 -0.019111 0.350361 0.936420 2.000000
-36.467400 42.923199 -731.239319 -0.135850 0.005522 -0.990714 1.000000
-36.466801 13.816200 -731.699524 0.997034 0.046349 0.061439 1.000000
-36.466801 15.486400 -730.907227 -0.818228 0.249026 0.518159 1.000000
-36.466599 31.192699 -735.792603 0.909907 0.354415 0.215542 2.000000
-36.465801 37.355801 -731.531616 -0.235445 0.084357 -0.968220 1.000000
-36.465302 46.948898 -727.216492 -0.443159 0.075931 0.893221 1.000000
-36.464699 47.541500 -727.117798 0.442221 0.028056 -0.896467 1.000000
-36.464500 15.647800 -732.876709 0.532946 0.804889 0.261003 2.000000
-36.463799 37.605202 -736.942688 0.043727 0.918266 0.393543 2.000000
-36.463799 19.780701 -730.452576 -0.318880 0.767554 -0.556036 1.000000
-36.463501 19.105499 -730.596130 -0.773927 0.107204 -0.624135 1.000000
-36.461601 14.727500 -732.748230 -0.760023 0.142411 0.634102 1.000000
-36.460999 33.407299 -736.164673 0.297813 0.121529 0.946857 2.000000
-36.460400 16.119301 -730.876099 0.209710 0.849400 -0.484294 1.000000
-36.459900 16.540100 -733.107910 0.319519 0.796412 0.513455 2.000000
-36.459801 43.729000 -727.578125 0.881437 0.372162 -0.290799 1.000000
-36.458900 15.833500 -730.493591 -0.664375 0.189601 0.722951 1.000000
-36.458199 24.415400 -729.549377 -0.296282 0.104028 -0.949418 1.000000
-36.457298 42.439999 -727.718811 0.631882 0.004130 -0.775054 1.000000
-36.456501 38.256401 -737.549316 -0.363277 0.229054 -0.903086 2.000000
-36.456200 45.301601 -731.166870 0.291838 0.098152 0.951418 1.000000
-36.456001 18.745399 -733.648315 0.284274 0.236188 0.929195 2.000000
-36.454800 44.982700 -731.161621 0.333946 0.553350 0.763075 1.000000
-36.453300 30.666901 -735.711426 0.089260 0.042977 0.995081 2.000000
-36.452702 27.900499 -729.294006 0.122263 0.012116 -0.992424 1.000000
-36.452301 39.666302 -738.284912 -0.941033 0.331128 0.069367 2.000000
-36.451000 39.210800 -728.187195 0.281332 0.015971 -0.959478 1.000000
-36.450001 33.307800 -731.764282 -0.821623 0.057980 -0.567075 1.000000
-36.450001 47.945099 -727.043091 0.653890 0.512690 -0.556395 1.000000
-36.449501 17.048401 -730.948486 0.629323 0.212882 0.747418 1.000000
-36.449402 39.144798 -737.867126 0.206002 0.298493 0.931915 2.000000
-36.449402 52.091499 -729.898499 -0.881132 0.025560 -0.472179 1.000000
-36.448799 30.224001 -736.033325 0.078423 0.995200 -0.058541 2.000000
-36.448700 30.364799 -729.145813 -0.291673 0.952799 0.084261 1.000000
-36.448399 34.450600 -728.608521 0.185278 0.026801 -0.982321 1.000000
-36.447399 14.327500 -732.317383 -0.962949 0.136450 0.232615 1.000000
-36.447300 18.777800 -730.672913 -0.297288 0.783758 -0.545292 1.000000
-36.446899 38.754299 -737.393372 -0.174599 0.208731 0.962261 2.000000
-36.446800 20.396000 -730.333191 -0.171257 0.876778 -0.449367 1.000000
-36.445801 36.749699 -737.004883 0.515212 0.852027 -0.092767 2.000000
-36.445499 36.389400 -736.884583 0.986347 0.035846 -0.160730 2.000000
-36.442299 34.068501 -728.802490 0.094766 0.081065 -0.992193 1.000000
-36.441898 33.197701 -736.354675 0.668610 0.290212 0.684644 2.000000
-36.440399 48.872002 -726.840576 0.586722 0.116168 -0.801413 1.000000
-36.439999 29.163799 -735.600403 0.115884 0.123052 0.985611 2.000000
-36.438702 26.175699 -729.385986 -0.021663 0.342788 0.939163 1.000000
-36.438400 37.033600 -737.106689 -0.376308 0.114409 -0.919404 2.000000
-36.437599 19.196899 -733.726074 -0.038067 0.254188 -0.966405 2.000000
-36.436798 49.973301 -726.315979 0.305975 0.751322 -0.584717 1.000000
-36.436401 22.153999 -729.912720 -0.268974 0.263281 -0.926464 1.000000
-36.435501 31.695000 -736.070801 0.155324 0.969171 0.191267 2.000000
-36.435501 52.272999 -730.124329 0.894885 0.444068 0.044542 1.000000
-36.434299 51.043400 -730.029114 0.113420 0.776261 0.620125 1.000000
-36.433800 15.206100 -730.968018 -0.681618 0.448302 -0.578292 1.000000
-36.433102 23.378000 -729.730774 -0.058541 0.078423 -0.995200 1.000000
-36.432899 45.695801 -731.145386 -0.152801 0.016978 -0.988111 1.000000
-36.432400 23.987499 -729.623779 0.261476 0.008435 0.965173 1.000000
-36.430401 21.055300 -733.659119 0.016621 0.127426 0.991709 2.000000
-36.427700 34.220798 -736.469482 -0.976553 0.130955 -0.170866 2.000000
-36.425598 18.052500 -730.827271 0.476352 0.862743 -0.169599 1.000000
-36.425301 32.133900 -728.976685 -0.171657 0.038535 0.984403 1.000000
-36.425201 40.908100 -731.473022 -0.561321 0.075700 -0.824129 1.000000
-36.423801 40.330700 -728.088196 0.283243 0.111980 -0.952488 1.000000
-36.419601 44.247299 -727.506104 0.398520 0.068897 -0.914568 1.000000
-36.419300 21.755301 -730.090698 -0.481185 0.202367 -0.852941 1.000000
-36.418301 49.770802 -726.720276 0.877818 0.298670 -0.374475 1.000000
-36.417702 14.308100 -731.595093 0.998734 0.034511 0.036603 1.000000
-36.415600 20.492100 -733.856018 0.234947 0.915283 0.327196 2.000000
-36.415600 14.040600 -731.966370 -0.997446 0.052610 0.048315 1.000000
-36.414902 14.729000 -732.432922 -0.973856 0.109042 0.199283 1.000000
-36.414398 19.822201 -733.444580 -0.335543 0.740788 -0.581932 2.000000
-36.414101 35.454800 -728.628418 -0.430026 0.884833 0.179299 1.000000
-36.413601 21.195700 -730.192505 0.165822 0.914149 0.369911 1.000000
-36.412601 17.916000 -732.083313 0.818468 0.433868 -0.376654 1.000000
-36.412102 26.074200 -732.510986 -0.694388 0.394201 0.602023 1.000000
-36.410301 45.449001 -727.345886 0.430916 0.049981 -0.901007 1.000000
-36.409599 26.724701 -735.378174 0.311118 0.776997 -0.547249 2.000000
-36.409599 20.134701 -730.430908 -0.721714 0.129998 -0.679875 1.000000
-36.409401 43.935200 -731.237671 0.183061 0.883087 -0.432025 1.000000
-36.407902 14.321000 -731.980286 0.864413 0.330105 -0.379236 1.000000
-36.405701 25.629801 -734.933228 0.021552 0.153130 0.987971 2.000000
-36.404701 45.808102 -727.305176 0.455389 0.105741 -0.883991 1.000000
-36.403900 42.169102 -731.424622 0.151242 0.388705 0.908864 1.000000
-36.403599 14.998300 -732.650330 -0.973826 0.227265 -0.003533 1.000000
-36.403000 52.969200 -730.005371 0.507777 0.139017 -0.850198 1.000000
-36.402100 17.791000 -730.964478 -0.934379 0.061766 -0.350885 1.000000
-36.400501 26.566900 -735.006592 -0.365926 0.276312 0.888679 2.000000
-36.399799 39.974201 -737.973511 0.120041 0.203438 0.971701 2.000000
-36.398998 27.547199 -729.338623 0.138275 0.083910 0.986833 1.000000
-36.397598 29.286100 -729.161926 0.007328 0.068046 -0.997655 1.000000
-36.397499 35.269798 -736.619385 0.206822 0.247912 0.946448 2.000000
-36.396301 23.376600 -734.446899 0.293286 0.942608 0.159602 2.000000
-36.394199 20.938400 -733.913391 -0.232614 0.330860 -0.914561 2.000000
-36.393600 15.961100 -732.895630 -0.182921 0.717851 0.671736 2.000000
-36.393200 25.676600 -729.451904 -0.277536 0.072901 -0.957945 1.000000
-36.391998 15.599500 -731.499084 -0.875837 0.464524 0.130872 1.000000
-36.391399 16.022301 -729.760010 -0.788634 0.611797 0.061322 2.000000
-36.389500 29.095200 -735.879211 -0.260913 0.275170 -0.925314 2.000000
-36.389400 14.665100 -731.959778 0.956614 0.250069 -0.149512 1.000000
-36.387901 35.637699 -736.708496 -0.294770 0.084405 -0.951833 2.000000
-36.387100 22.262699 -734.176880 0.108625 0.323194 0.940078 2.000000
-36.386101 36.591400 -728.465088 0.170086 0.170086 -0.970640 1.000000
-36.385700 23.970400 -734.466614 0.001149 0.196558 0.980491 2.000000
-36.385300 28.679100 -735.486084 -0.361521 0.932343 0.006342 2.000000
-36.384602 20.248699 -733.534424 -0.259157 0.259157 -0.930417 2.000000
-36.382999 18.193300 -733.570618 0.062995 0.120263 -0.990741 2.000000
-36.381599 48.675900 -730.785583 -0.073087 0.124131 -0.989570 1.000000
-36.380901 51.617298 -730.071411 0.156254 0.200160 -0.967223 1.000000
-36.380100 30.952700 -736.071777 0.496328 0.068507 0.865428 2.000000
-36.379002 37.818802 -737.438599 -0.581962 0.378685 -0.719665 2.000000
-36.378201 21.667000 -734.036316 0.197823 0.224738 0.954127 2.000000
-36.377602 29.627800 -729.071899 -0.289962 0.645605 -0.706481 1.000000
-36.377201 18.567801 -731.917786 -0.983919 0.178584 -0.003412 1.000000
-36.375702 37.942101 -737.083618 -0.301704 0.241649 0.922269 2.000000
-36.374500 40.721100 -738.378906 0.169251 0.648032 0.742569 2.000000
-36.374298 36.256802 -728.507324 0.218162 0.039775 -0.975102 1.000000
-36.374100 40.824902 -728.012817 -0.149785 0.712614 -0.685380 1.000000
-36.374001 18.529400 -730.803589 0.897633 0.119778 0.424156 1.000000
-36.373299 50.790501 -730.571106 0.183998 0.048671 -0.981721 1.000000
-36.372799 25.121300 -734.814575 0.001148 0.191699 0.981453 2.000000
-36.370499 26.436300 -735.293213 0.052717 0.315016 -0.947621 2.000000
-36.369301 19.601500 -733.802002 0.330798 0.470081 0.818289 2.000000
-36.368301 28.010700 -735.524414 -0.265723 0.025715 -0.963706 2.000000
-36.367100 32.580002 -736.365173 -0.839068 0.114484 -0.531844 2.000000
-36.366600 43.348499 -727.572021 0.519527 0.693260 0.499481 1.000000
-36.366501 22.499201 -729.989807 -0.144796 0.052127 -0.988087 1.000000
-36.363201 52.002399 -730.379883 0.341790 0.276687 -0.898123 1.000000
-36.363098 19.375200 -730.524780 -0.492431 0.696081 -0.522478 1.000000
-36.360401 20.803801 -730.326172 -0.694986 0.159679 -0.701069 1.000000
-36.359600 30.602400 -735.970825 0.502794 0.062675 0.862131 2.000000
-36.358700 15.174200 -732.433594 -0.978727 0.166618 0.119718 1.000000
-36.357201 35.193901 -728.514587 -0.056670 0.039562 -0.997609 1.000000
-36.357101 43.643200 -731.218079 -0.160692 0.116533 -0.980101 1.000000
-36.355099 18.006100 -731.793823 0.948074 0.152393 -0.279163 1.000000
-36.354301 18.972300 -731.920715 -0.991228 0.021185 0.130454 1.000000
-36.353600 15.099600 -731.379211 -0.657267 0.539598 -0.526150 1.000000
-36.351501 30.177000 -728.931274 -0.185976 0.814967 -0.548855 1.000000
-36.351398 34.762901 -728.589111 0.209707 0.024880 -0.977448 1.000000
-36.350899 40.520199 -731.501282 -0.354651 0.121869 -0.927022 1.000000
-36.349201 52.661400 -730.081909 0.672501 0.209671 -0.709775 1.000000
-36.349098 14.576700 -731.661682 -0.979621 0.185727 0.076476 1.000000
-36.348598 27.284100 -735.365173 0.223807 0.315040 0.922312 2.000000
-36.348598 39.195999 -731.567017 -0.428590 0.055433 -0.901797 1.000000
-36.348202 14.904000 -731.653381 -0.920677 0.351070 -0.170600 1.000000
-36.345200 36.837700 -736.490723 -0.470248 0.269814 0.840278 2.000000
-36.345100 38.821301 -737.721924 0.789479 0.398776 0.466584 2.000000
-36.342300 39.968601 -728.099487 -0.427707 0.893781 0.134991 1.000000
-36.341301 15.972000 -730.177612 -0.851335 0.501391 -0.154387 2.000000
-36.340599 15.365300 -732.833130 -0.963788 0.040828 -0.263526 2.000000
-36.340401 33.605801 -728.710205 -0.294344 0.836312 -0.462541 1.000000
-36.340000 51.216702 -730.488281 0.193037 0.056352 -0.979572 1.000000
-36.336700 18.037399 -731.505920 0.957502 0.237715 -0.163346 1.000000
-36.335201 38.897900 -728.023193 -0.343841 0.913554 -0.217239 1.000000
-36.334999 37.329601 -737.293030 -0.287651 0.117977 -0.950441 2.000000
-36.334202 18.109501 -731.087708 -0.905340 0.259717 -0.336017 1.000000
-36.330799 40.244598 -738.142273 0.248645 0.231976 0.940406 2.000000
-36.330799 48.081902 -730.875793 0.078989 0.296532 -0.951751 1.000000
-36.330700 25.404499 -729.581970 -0.296054 0.267171 -0.917045 1.000000
-36.329300 17.461000 -731.213928 0.975587 0.005870 0.219536 1.000000
-36.328499 28.877899 -735.675903 0.350697 0.115989 0.929278 2.000000
-36.327702 14.987500 -731.946472 -0.984789 0.173112 -0.014904 1.000000
-36.327000 34.818298 -736.564819 0.500145 0.031344 0.865374 2.000000
-36.326199 48.589699 -726.821716 0.501714 0.197371 -0.842216 1.000000
-36.325001 46.939701 -731.086426 -0.001071 0.099610 -0.995026 1.000000
-36.324600 31.220900 -736.213013 0.450230 0.466602 0.761298 2.000000
-36.321201 17.050200 -733.193420 -0.147878 0.384483 0.911211 2.000000
-36.319801 49.726200 -726.445679 0.904505 0.424944 -0.035967 1.000000
-36.319401 37.212200 -728.376770 -0.428712 0.723348 0.541270 1.000000
-36.318901 32.203701 -736.349304 0.135672 0.223535 0.965207 2.000000
-36.317600 23.736799 -729.727722 0.164074 0.040728 0.985607 1.000000
-36.314098 25.020901 -729.553772 -0.112969 0.062760 -0.991614 1.000000
-36.313000 35.629601 -728.422485 -0.083686 0.226077 -0.970508 1.000000
-36.311199 46.040798 -731.143982 -0.072654 0.040122 -0.996550 1.000000
-36.310600 17.760799 -731.297913 -0.993137 0.084932 0.080402 1.000000
-36.309799 28.810699 -729.237488 -0.123868 0.070616 -0.989783 1.000000
-36.309601 53.251801 -729.780884 -0.371561 0.365343 0.853503 1.000000
-36.306099 49.257999 -726.704529 0.867464 0.203847 -0.453819 1.000000
-36.301300 18.326900 -731.671875 0.917412 0.164881 -0.362173 1.000000
-36.301201 15.488400 -732.451477 -0.959265 0.181769 0.216266 1.000000
-36.299301 46.492100 -731.106201 -0.034026 0.023715 -0.999139 1.000000
-36.298599 39.566399 -738.029419 0.224453 0.060099 0.972630 2.000000
-36.298599 33.106899 -728.771790 -0.064728 0.208839 -0.975805 1.000000
-36.297600 18.733101 -731.694214 -0.974198 0.111301 0.196340 1.000000
-36.297501 26.167700 -735.217224 0.216835 0.656746 0.722265 2.000000
-36.296501 18.322201 -731.390686 0.857729 0.241379 0.453913 1.000000
-36.296200 21.452700 -730.120117 -0.478721 0.218974 -0.850221 1.000000
-36.295200 24.698999 -729.707275 -0.315303 0.667796 -0.674264 1.000000
-36.294800 19.764500 -731.638916 -0.976918 0.145976 0.155957 1.000000
-36.294399 28.199699 -729.241577 -0.316218 0.856103 -0.408770 1.000000
-36.294300 18.793100 -730.939026 0.282426 0.862545 -0.419823 1.000000
-36.292702 22.940100 -734.102173 -0.100235 0.229653 0.968097 2.000000
-36.292400 30.721201 -728.969421 -0.081805 0.072840 -0.993983 1.000000
-36.290798 32.611198 -728.921326 0.016212 0.094032 0.995437 1.000000
-36.290199 26.408899 -732.529724 -0.894256 0.215855 0.392063 1.000000
-36.288101 19.675600 -730.698730 -0.318880 0.767554 -0.556036 1.000000
-36.286201 37.645500 -728.309326 -0.173011 0.001131 0.984919 1.000000
-36.285500 17.757799 -731.602478 0.953852 0.277604 0.114462 1.000000
-36.285099 25.805700 -732.257324 -0.584351 0.232182 0.777577 1.000000
-36.284901 21.342800 -734.016296 0.387589 0.464785 0.796084 2.000000
-36.284801 19.157301 -730.842407 -0.761875 0.375252 -0.527952 1.000000
-36.283901 15.669300 -731.825684 0.573574 0.654312 0.492837 1.000000
-36.282700 36.087898 -736.890625 -0.308689 0.088009 -0.947083 2.000000
-36.282001 20.036501 -733.888611 0.105605 0.982002 0.156586 2.000000
-36.280499 48.097000 -726.879822 0.554022 0.202989 -0.807376 1.000000
-36.278000 38.377201 -737.215820 0.005700 0.178983 0.983836 2.000000
-36.277401 16.359600 -730.075317 0.765640 0.560185 0.316208 2.000000
-36.277100 18.536400 -731.105713 -0.953234 0.273675 -0.128244 1.000000
-36.277000 39.605400 -728.142517 0.098750 0.132063 -0.986310 1.000000
-36.276600 19.373699 -731.844727 0.906974 0.142464 0.396360 1.000000
-36.275902 44.682899 -731.246399 0.154395 0.236210 0.959358 1.000000
-36.272099 50.442501 -730.602600 0.488782 0.639951 -0.592921 1.000000
-36.271599 29.932301 -735.895813 0.382109 0.111736 0.917337 2.000000
-36.271500 15.069200 -732.887024 -0.731423 0.049902 -0.680095 2.000000
-36.271301 31.228300 -728.932190 -0.337230 0.863863 -0.374187 1.000000
-36.270401 39.593498 -737.635376 -0.334272 0.358694 0.871551 2.000000
-36.269402 25.927200 -729.540527 -0.227525 0.141715 -0.963405 1.000000
-36.268700 38.381802 -737.753784 -0.879135 0.045119 -0.474432 2.000000
-36.268299 32.890099 -736.468384 0.617967 0.219480 0.754947 2.000000
-36.267799 46.074200 -727.196106 -0.191679 0.376153 0.906514 1.000000
-36.267700 34.487400 -736.650391 0.390545 0.074325 0.917578 2.000000
-36.266499 16.041901 -730.524719 -0.518403 0.320612 0.792758 2.000000
-36.266499 26.931499 -729.485229 -0.048073 0.247762 -0.967628 1.000000
-36.265701 36.835602 -728.270874 -0.222165 0.249763 0.942476 1.000000
-36.264599 31.515400 -728.967224 -0.241352 0.689351 -0.683041 1.000000
-36.264198 50.570599 -729.933289 -0.325455 0.159265 -0.932048 1.000000
-36.261799 16.360001 -732.951721 0.877034 0.149313 -0.456637 2.000000
-36.260700 19.045900 -731.584412 -0.958071 0.023488 0.285567 1.000000
-36.260300 39.899601 -738.242310 -0.187264 0.982277 0.008042 2.000000
-36.258598 19.489000 -733.562195 0.774514 0.122915 -0.620500 2.000000
-36.257801 22.777399 -729.979675 0.588486 0.357004 0.725419 1.000000
-36.257198 24.279699 -729.725830 -0.218671 0.161057 -0.962415 1.000000
-36.257198 27.232599 -729.386475 0.205483 0.003483 0.978655 1.000000
-36.254200 20.525200 -730.540588 0.721939 0.673303 0.159586 1.000000
-36.253502 15.782300 -731.221619 -0.916153 0.359359 -0.177549 2.000000
-36.252899 37.969299 -728.259094 0.078772 0.180569 -0.980403 1.000000
-36.252499 40.132599 -738.509583 0.154122 0.858681 -0.488788 2.000000
-36.250599 15.258800 -731.616821 -0.482029 0.733811 -0.478716 1.000000
-36.250301 20.015499 -730.687073 -0.865466 0.172504 -0.470330 1.000000
-36.249699 31.712400 -736.343079 0.492981 0.529746 0.690173 2.000000
-36.248402 22.060699 -730.128601 -0.523426 0.148918 -0.838957 1.000000
-36.247002 15.706800 -730.746277 -0.465780 0.783873 -0.410600 2.000000
-36.246899 15.810000 -732.606628 -0.961746 0.217084 0.167089 2.000000
-36.245800 47.542198 -730.968811 0.075443 0.166454 -0.983159 1.000000
-36.244301 18.931601 -731.177612 -0.896937 0.325753 -0.298979 1.000000
-36.243900 29.406401 -735.831116 0.349489 0.136757 0.926906 2.000000
-36.243401 17.579700 -733.317993 -0.095394 0.413374 0.905551 2.000000
-36.243099 26.925900 -735.228577 0.133631 0.268586 0.953942 2.000000
-36.242199 22.500601 -734.254822 0.080078 0.161351 0.983643 2.000000
-36.241901 33.992500 -736.536194 -0.991053 0.117738 0.062870 2.000000
-36.241699 19.876699 -732.003784 -0.722215 0.009741 0.691601 1.000000
-36.241199 26.487700 -729.400818 -0.281281 0.325461 -0.902749 1.000000
-36.240601 24.804600 -732.193420 -0.693895 0.126841 -0.708817 1.000000
-36.240501 38.907799 -738.008911 0.181896 0.243875 0.952596 2.000000
-36.239300 17.156500 -731.125183 0.327124 0.469352 0.820182 1.000000
-36.238400 46.789501 -727.097778 0.513995 0.071819 -0.854781 1.000000
-36.237000 32.330299 -728.828674 0.061422 0.137909 -0.988539 1.000000
-36.236900 44.637901 -727.373596 0.383584 0.094190 -0.918690 1.000000
-36.236198 33.575100 -736.564026 0.630146 0.209017 0.747815 2.000000
-36.233601 38.401199 -728.219482 -0.334449 0.920802 0.200669 1.000000
-36.232201 34.991699 -736.763489 0.312177 0.102288 -0.944501 2.000000
-36.231701 20.219801 -731.539673 -0.968933 0.230578 0.089459 1.000000
-36.231400 51.920898 -730.067078 0.988865 0.148609 0.007822 1.000000
-36.230202 31.796499 -728.900818 -0.138312 0.432045 -0.891183 1.000000
-36.226501 28.256901 -735.661682 0.155575 0.455094 0.876747 2.000000
-36.226101 43.157001 -731.296570 -0.334430 0.034596 -0.941785 1.000000
-36.226101 51.352901 -730.090820 0.329575 0.465189 0.821571 1.000000
-36.225101 30.753599 -736.234375 -0.521967 0.211526 -0.826321 2.000000
-36.224998 38.030201 -737.642822 -0.249235 0.336686 -0.908033 2.000000
-36.224201 34.279900 -728.608215 -0.244900 0.154883 -0.957097 1.000000
-36.223999 33.895302 -728.705200 -0.043326 0.261194 -0.964314 1.000000
-36.221500 48.914299 -726.654297 0.471295 0.732574 0.491139 1.000000
-36.220798 21.248899 -733.721313 -0.109096 0.076941 0.991049 2.000000
-36.220501 15.310700 -731.984619 -0.964234 0.229087 0.133310 1.000000
-36.220200 27.658899 -735.648071 -0.074842 0.207349 -0.975400 2.000000
-36.218399 22.215700 -733.913086 0.090203 0.085636 0.992235 2.000000
-36.217201 36.571098 -736.935913 0.534962 0.185353 0.824294 2.000000
-36.216499 20.751101 -733.651794 0.078823 0.231464 0.969645 2.000000
-36.216202 19.001200 -733.770813 0.171226 0.133731 0.976113 2.000000
-36.215000 20.695801 -733.963074 0.296342 0.530881 0.793944 2.000000
-36.214500 44.247398 -731.254578 -0.072667 0.007372 -0.997329 1.000000
-36.211498 50.000099 -730.629822 0.133015 0.042064 -0.990221 1.000000
-36.211399 47.778900 -726.926086 0.633584 0.414075 -0.653539 1.000000
-36.211201 39.257099 -727.958313 0.265241 0.102215 0.958749 1.000000
-36.209900 19.222300 -731.369812 0.976730 0.141319 -0.161329 1.000000
-36.208900 21.317301 -730.355225 -0.802128 0.079205 -0.591876 1.000000
-36.208000 24.669600 -734.609924 -0.248638 0.327156 0.911673 2.000000
-36.207401 17.924801 -733.495300 0.497016 0.752905 -0.431403 2.000000
-36.206902 40.538502 -738.232300 0.062979 0.519226 0.852314 2.000000
-36.205700 29.623501 -736.037476 -0.458359 0.245169 -0.854283 2.000000
-36.202702 16.150900 -732.664490 -0.971597 0.172360 0.162146 2.000000
-36.202099 50.884499 -729.832520 0.652702 0.445707 0.612638 1.000000
-36.201302 15.585700 -731.023376 0.601795 0.365669 0.710020 2.000000
-36.200699 22.658501 -734.027283 0.013540 0.291723 0.956407 2.000000
-36.199799 39.307999 -737.926575 -0.986652 0.012489 0.162361 2.000000
-36.199699 23.393101 -734.204407 0.006021 0.263724 0.964579 2.000000
-36.199699 26.770100 -732.524475 -0.849835 0.372680 0.372680 1.000000
-36.199699 25.110600 -732.130615 -0.287908 0.041489 -0.956759 1.000000
-36.199501 31.476200 -736.187683 -0.521176 0.020412 -0.853205 2.000000
-36.199100 30.978901 -729.090088 0.013323 0.037918 -0.999192 1.000000
-36.195900 30.078501 -729.167786 -0.226743 0.658337 -0.717760 1.000000
-36.195400 37.149502 -737.461609 0.447962 0.879977 0.158019 2.000000
-36.195301 47.273201 -726.995789 0.589851 0.231894 -0.773499 1.000000
-36.195099 17.493401 -731.497986 0.827633 0.519748 0.211862 1.000000
-36.193600 25.414499 -732.189209 -0.039175 0.198248 0.979369 1.000000
-36.193501 19.498501 -730.997681 0.981965 0.001146 0.189060 1.000000
-36.192600 18.630400 -733.559692 0.291723 0.799479 0.525101 2.000000
-36.192402 36.875599 -737.280273 0.170886 0.036037 0.984631 2.000000
-36.192001 49.438000 -726.367493 0.915946 0.318778 -0.243771 1.000000
-36.189701 40.220200 -727.952820 0.316336 0.096621 0.943714 1.000000
-36.189602 41.129002 -738.704285 -0.914287 0.362587 0.180582 2.000000
-36.189400 15.514700 -731.298889 -0.217455 0.883133 -0.415679 2.000000
-36.188801 23.325001 -729.919373 -0.394620 0.080009 -0.915355 1.000000
-36.187401 38.564098 -737.437622 -0.385441 0.446216 0.807667 2.000000
-36.187401 21.700300 -730.298218 -0.756778 0.277644 -0.591778 1.000000
-36.187099 40.449402 -738.552917 0.406724 0.009096 0.913506 2.000000
-36.184200 38.623798 -737.890320 -0.380351 0.877383 -0.292461 2.000000
-36.184200 21.522800 -733.802124 0.057938 0.235451 0.970158 2.000000
-36.183998 15.815300 -733.068970 0.659203 0.070680 0.748636 2.000000
-36.182899 40.118698 -737.863220 -0.550405 0.380547 0.743128 2.000000
-36.181099 36.080299 -728.372986 -0.232182 0.777577 -0.584351 1.000000
-36.180599 35.569199 -736.919006 -0.939905 0.039969 -0.339088 2.000000
-36.179699 51.464401 -730.356628 0.582690 0.141574 -0.800268 1.000000
-36.179199 15.897200 -732.286072 -0.946126 0.266226 0.184310 1.000000
-36.178501 45.216999 -731.218994 -0.022971 0.000999 -0.999736 1.000000
-36.178200 25.775200 -735.110596 0.422414 0.858653 -0.290314 2.000000
-36.177898 46.429001 -727.111511 -0.405794 0.033045 0.913367 1.000000
-36.176800 22.006901 -734.156189 0.282513 0.137909 0.949298 2.000000
-36.175400 33.318901 -736.406128 0.880283 0.205646 0.427566 2.000000
-36.175098 24.294600 -734.477417 -0.130293 0.302226 0.944290 2.000000
-36.174301 30.172701 -736.123474 -0.186948 0.845003 -0.501019 2.000000
-36.172798 20.865801 -730.563477 -0.850157 0.199420 -0.487303 1.000000
-36.172199 25.329599 -734.818115 -0.135260 0.001100 0.990809 2.000000
-36.169998 49.244701 -730.707214 0.354925 0.828159 0.433798 1.000000
-36.165401 23.717100 -734.314514 -0.086257 0.138247 0.986634 2.000000
-36.165001 45.601799 -731.174072 0.005203 0.063479 -0.997970 1.000000
-36.164501 19.831100 -730.991089 -0.973835 0.082906 -0.211596 1.000000
-36.163502 37.545101 -737.424622 0.260334 0.186732 0.947289 2.000000
-36.162998 27.751301 -729.379272 -0.161225 0.277741 -0.947030 1.000000
-36.162498 15.909000 -731.905212 -0.919268 0.365189 -0.146915 2.000000
-36.162201 16.192101 -729.882324 -0.583750 0.792990 -0.174367 2.000000
-36.160999 29.455000 -729.211975 0.113929 0.072500 0.990840 1.000000
-36.157902 24.973101 -734.678406 -0.006292 0.341029 0.940032 2.000000
-36.156200 20.185200 -731.947876 -0.956990 0.146924 -0.250167 1.000000
-36.155602 19.577900 -731.346313 -0.987312 0.128575 0.093187 1.000000
-36.155300 45.633400 -727.195190 0.340167 0.141851 -0.929605 1.000000
-36.150002 15.807600 -731.553772 -0.863130 0.501755 0.056986 2.000000
-36.147800 26.270599 -732.265808 -0.523596 0.328248 0.786194 1.000000
-36.146999 50.923302 -730.418823 0.755819 0.188572 -0.627039 1.000000
-36.145199 39.538898 -727.898987 0.922627 0.140128 -0.359339 1.000000
-36.145000 49.717899 -730.676575 0.031683 0.530352 0.847185 1.000000
-36.143700 30.403799 -729.104675 -0.005765 0.981268 0.192564 1.000000
-36.142300 43.843800 -731.278076 -0.025607 0.123583 0.992004 1.000000
-36.141499 28.547199 -735.700928 0.256315 0.150070 0.954872 2.000000
-36.140900 27.461500 -735.446716 0.105429 0.189773 0.976151 2.000000
-36.140301 39.124401 -737.684021 -0.591826 0.806037 -0.006866 2.000000
-36.139099 19.320700 -733.816101 0.156963 0.301642 -0.940412 2.000000
-36.137100 51.082401 -730.091919 -0.548409 0.619280 -0.561908 1.000000
-36.134899 36.190701 -737.120422 -0.127857 0.108738 -0.985814 2.000000
-36.134300 49.120201 -726.404785 0.731072 0.539640 -0.417520 1.000000
-36.132301 19.792101 -733.783020 0.035020 0.359280 0.932572 2.000000
-36.132099 44.045898 -727.401611 0.335870 0.072443 -0.939118 1.000000
-36.132000 20.800699 -731.818604 0.945772 0.058221 0.319570 1.000000
-36.131802 35.290600 -736.839600 0.287447 0.149796 0.946010 2.000000
-36.130501 37.389301 -728.231323 0.069470 0.105914 -0.991946 1.000000
-36.129902 20.375700 -730.818787 -0.932417 0.112650 -0.343379 1.000000
-36.128300 19.987000 -731.357483 -0.988121 0.116596 0.100108 1.000000
-36.127800 23.471300 -734.466614 0.166602 0.141549 -0.975811 2.000000
-36.126801 33.428299 -728.782471 -0.232524 0.922965 0.306704 1.000000
-36.126099 23.945601 -729.755310 -0.445043 0.233836 -0.864440 1.000000
-36.125000 45.010300 -727.291992 0.370498 0.117072 -0.921426 1.000000
-36.124500 30.432400 -736.029602 0.439075 0.196623 0.876671 2.000000
-36.124500 28.439199 -729.325623 -0.282563 0.739135 -0.611423 1.000000
-36.122200 38.663898 -728.005127 -0.069735 0.427984 -0.901092 1.000000
-36.120701 20.496700 -731.761475 0.520381 0.434477 0.735142 1.000000
-36.118198 35.871601 -737.050781 0.414562 0.181825 0.891672 2.000000
-36.118099 32.581501 -736.556519 -0.829270 0.009563 -0.558767 2.000000
-36.117901 36.538799 -737.236816 -0.060790 0.412020 -0.909145 2.000000
-36.117001 48.577999 -730.809082 0.159122 0.224875 -0.961307 1.000000
-36.116402 20.192801 -731.079529 -0.990194 0.094028 -0.103315 1.000000
-36.113998 16.882000 -733.060730 0.592312 0.805708 0.001368 2.000000
-36.112701 22.947701 -734.343628 0.079404 0.243252 0.966707 2.000000
-36.112598 31.944201 -736.467407 0.450062 0.177386 0.875202 2.000000
-36.111401 35.356098 -728.452881 -0.173457 0.148135 -0.973637 1.000000
-36.110600 14.738200 -731.691284 0.583508 0.800282 0.138082 1.000000
-36.110500 27.057501 -732.526428 -0.929851 0.201163 0.308075 1.000000
-36.110298 23.845699 -734.563782 0.361001 0.522884 -0.772185 2.000000
-36.108002 29.054100 -735.990723 -0.449367 0.171257 -0.876778 2.000000
-36.108002 26.642700 -735.275879 0.318445 0.947842 -0.013737 2.000000
-36.103600 16.172899 -732.219727 0.973544 0.062611 -0.219753 1.000000
-36.103600 36.348701 -728.471985 0.071655 0.062836 -0.995448 1.000000
-36.103199 25.218500 -729.674377 -0.391632 0.609756 -0.689074 1.000000
-36.102901 45.346199 -727.246582 0.517439 0.089803 -0.850995 1.000000
-36.102600 46.765400 -731.102478 0.079319 0.145615 -0.986157 1.000000
-36.101799 16.369101 -730.448486 -0.870607 0.449393 0.200225 2.000000
-36.099602 17.252899 -733.233704 -0.325920 0.643732 0.692377 2.000000
-36.098801 25.642000 -729.633484 0.311395 0.102032 0.944787 1.000000
-36.097099 20.876699 -731.489014 -0.987296 0.109962 0.114692 1.000000
-36.096500 26.988199 -735.464111 0.256606 0.760372 -0.596648 2.000000
-36.094200 20.441099 -731.418030 -0.966536 0.127413 0.222651 1.000000
-36.093102 26.386600 -735.149780 -0.147423 0.427956 -0.891695 2.000000
-36.092999 40.848099 -738.453979 0.139093 0.166661 0.976155 2.000000
-36.091999 51.761398 -730.270325 0.458710 0.073449 -0.885545 1.000000
-36.091301 16.480900 -732.712219 -0.968004 0.237293 0.081609 2.000000
-36.091000 20.332800 -733.612915 -0.165986 0.035983 -0.985471 2.000000
-36.090500 21.124201 -734.087219 0.019099 0.938389 -0.345052 2.000000
-36.090199 34.673801 -736.859924 -0.760808 0.029532 -0.648304 2.000000
-36.088799 16.178101 -730.226685 -0.761787 0.576531 -0.295452 2.000000
-36.087601 34.100498 -736.762878 -0.302931 0.163117 -0.938949 2.000000
-36.084900 15.961900 -730.973083 -0.852021 0.285034 0.439107 2.000000
-36.084301 39.586899 -738.269226 -0.356533 0.081455 -0.930725 2.000000
-36.084301 27.968300 -735.506104 0.135076 0.185571 0.973303 2.000000
-36.082699 20.491800 -731.132080 -0.996913 0.031187 -0.072053 1.000000
-36.082401 50.329399 -729.884888 0.947010 0.319885 -0.029080 1.000000
-36.080299 26.138599 -729.564026 -0.241851 0.089903 -0.966139 1.000000
-36.080299 34.646301 -728.606018 -0.080072 0.080072 -0.993568 1.000000
-36.078701 33.312000 -736.676880 0.597309 0.174785 0.782734 2.000000
-36.076698 16.327801 -731.942383 -0.961334 0.212311 0.175387 2.000000
-36.074600 32.889599 -728.846375 -0.066404 0.191967 -0.979152 1.000000
-36.073700 22.532900 -730.083191 -0.641255 0.202420 -0.740147 1.000000
-36.073101 46.945801 -726.801025 -0.127415 0.456691 -0.880454 1.000000
-36.073002 43.570801 -731.304993 -0.417813 0.414611 -0.808412 1.000000
-36.072498 16.141399 -731.684021 -0.893792 0.338716 0.293952 2.000000
-36.071602 40.126801 -738.227173 -0.455125 0.011942 -0.890347 2.000000
-36.071602 39.301800 -738.184814 0.349755 0.024342 0.936525 2.000000
-36.071301 46.311298 -731.113220 0.074506 0.106601 -0.991506 1.000000
-36.070702 20.696800 -730.855408 -0.957723 0.127085 -0.258100 1.000000
-36.070202 16.025200 -731.317322 -0.771694 0.635920 0.009698 2.000000
-36.070000 29.080299 -729.268127 0.049957 0.222977 0.973543 1.000000
-36.067299 21.149099 -731.626221 -0.976072 0.215713 0.027411 1.000000
-36.066799 21.748501 -734.147705 0.241286 0.055681 0.968855 2.000000
-36.066002 18.232500 -733.549377 -0.317753 0.234361 0.918753 2.000000
-36.064602 16.569901 -732.180725 -0.977700 0.207895 -0.029699 1.000000
-36.063499 20.999300 -733.708374 0.060696 0.122537 0.990606 2.000000
-36.063400 38.961498 -728.124878 -0.227087 0.937603 -0.263309 1.000000
-36.062801 26.391100 -731.872986 0.374232 0.076456 0.924178 1.000000
-36.060799 21.189199 -730.616516 -0.918149 0.201336 -0.341272 1.000000
-36.059101 50.309898 -730.444885 0.862708 0.260182 -0.433636 1.000000
-36.058800 15.080200 -731.741028 0.941784 0.321032 0.099906 2.000000
-36.054699 25.902100 -732.105103 0.769384 0.015304 -0.638603 1.000000
-36.051701 26.130800 -735.016602 -0.067067 0.203641 0.976746 2.000000
-36.050900 20.433201 -733.973877 0.272317 0.902327 0.334141 2.000000
-36.050701 48.051498 -730.858215 0.202286 0.265587 -0.942626 1.000000
-36.050499 22.018700 -730.372681 -0.815274 0.219556 -0.535839 1.000000
-36.049900 48.717800 -726.847290 -0.809240 0.079055 -0.582135 1.000000
-36.049000 24.486401 -729.728271 0.460443 0.017350 0.887520 1.000000
-36.048100 24.910601 -729.680176 0.518334 0.164857 0.839137 1.000000
-36.046902 32.941101 -736.652893 0.213164 0.126367 0.968810 2.000000
-36.045799 48.254601 -726.795288 -0.059536 0.277411 0.958905 1.000000
-36.044899 31.012600 -736.188782 0.375162 0.076646 0.923785 2.000000
-36.044701 38.177101 -728.015320 -0.412902 0.615208 0.671588 1.000000
-36.044498 39.540798 -737.825989 -0.460512 0.424713 0.779454 2.000000
-36.043999 47.653500 -726.728516 0.110892 0.752587 0.649088 1.000000
-36.040501 26.624201 -732.298706 -0.791353 0.145106 0.593889 1.000000
-36.040100 50.602001 -730.383728 0.840854 0.174742 -0.512279 1.000000
-36.039902 36.559101 -728.252625 0.062974 0.071812 0.995428 1.000000
-36.039600 50.746201 -730.084229 0.951765 0.228803 0.204433 1.000000
-36.039200 39.780300 -728.095886 -0.067314 0.275607 0.958911 1.000000
-36.037701 29.734800 -729.124573 -0.343917 0.425578 -0.837021 1.000000
-36.037498 22.278900 -734.231323 0.408116 0.260532 0.874965 2.000000
-36.037498 35.046799 -728.577515 -0.212584 0.220709 -0.951891 1.000000
-36.037399 30.666500 -729.093201 -0.288852 0.754845 -0.588875 1.000000
-36.036800 41.569698 -738.914673 -0.817050 0.341098 -0.464846 2.000000
-36.036598 24.471901 -734.710205 0.164852 0.147234 -0.975267 2.000000
-36.036098 38.975700 -738.227295 -0.353764 0.868331 0.347639 2.000000
-36.036098 22.245100 -730.146729 -0.404087 0.046677 -0.913529 1.000000
-36.035801 16.611000 -733.048828 -0.967819 0.245972 0.053150 2.000000
-36.031898 26.688900 -729.448120 -0.256407 0.204303 -0.944730 1.000000
-36.031399 27.504999 -729.426208 -0.254186 0.023108 -0.966879 1.000000
-36.025902 21.584200 -730.550415 -0.891809 0.123350 -0.435271 1.000000
-36.023399 37.046200 -728.281372 -0.231117 0.964493 0.127824 1.000000
-36.023201 32.348202 -736.411194 -0.508544 0.381814 -0.771752 2.000000
-36.022900 20.770000 -731.217712 -0.984880 0.091922 0.146837 1.000000
-36.020000 31.214899 -736.401672 0.331960 0.860007 0.387544 2.000000
-36.020000 46.107700 -727.064026 0.547411 0.149833 -0.823342 1.000000
-36.017300 49.315601 -726.571289 0.130189 0.390567 -0.911322 1.000000
-36.016899 16.632999 -730.137024 0.052417 0.308112 0.949905 2.000000
-36.014500 22.982300 -730.021484 -0.352946 0.806504 -0.474320 1.000000
-36.012100 21.038300 -730.852783 -0.991267 0.055766 -0.119498 1.000000
-36.011501 37.789600 -728.069580 0.139814 0.738157 0.659982 1.000000
-36.010502 33.684601 -736.759888 0.240244 0.967263 -0.081758 2.000000
-36.009602 35.860901 -728.449402 0.108903 0.239586 0.964748 1.000000
-36.007401 21.381800 -731.456421 -0.982628 0.085394 0.164774 1.000000
-36.004799 31.508600 -736.477905 -0.336682 0.539658 -0.771631 2.000000
-36.004799 39.438099 -728.131714 -0.152617 0.054756 0.986767 1.000000
-36.004299 35.589500 -728.578979 -0.114270 0.199659 -0.973180 1.000000
-36.004200 44.830700 -731.219910 0.149552 0.405927 0.901586 1.000000
-36.003899 16.757900 -732.628418 -0.913239 0.306349 0.268600 2.000000
-36.003899 15.400500 -731.625671 -0.842074 0.516492 0.155392 2.000000
-36.001999 23.214500 -734.391724 0.316500 0.920857 -0.227708 2.000000
-36.001202 21.425400 -734.155579 -0.277114 0.013428 -0.960743 2.000000
-36.001099 21.090300 -731.247681 -0.965109 0.035654 0.259411 1.000000
-35.999401 38.046600 -737.823730 0.865099 0.410426 0.288366 2.000000
-35.997200 23.601700 -729.912415 -0.701561 0.086054 -0.707395 1.000000
-35.994701 33.168701 -728.834900 -0.006439 0.390178 0.920717 1.000000
-35.994499 45.986198 -731.127808 0.110347 0.039012 -0.993127 1.000000
-35.993401 17.778099 -733.371216 0.893172 0.271964 -0.358161 2.000000
-35.993000 39.892101 -738.419678 -0.198758 0.027050 -0.979675 2.000000
-35.992100 27.388700 -732.560913 -0.752503 0.320660 0.575254 1.000000
-35.991299 48.754299 -726.386414 0.899651 0.171294 0.401604 1.000000
-35.991100 27.082199 -729.430115 -0.308613 0.063272 -0.949081 1.000000
-35.986301 37.535900 -737.685791 -0.963981 0.001203 -0.265967 2.000000
-35.978199 35.081299 -737.006226 -0.071802 0.065174 -0.995287 2.000000
-35.977299 51.305199 -730.228577 -0.535888 0.162707 0.828462 1.000000
-35.977200 46.596802 -726.837280 0.798189 0.323418 -0.508228 1.000000
-35.975201 50.426701 -730.154480 0.973677 0.227781 0.008262 1.000000
-35.974701 21.528099 -731.872009 -0.979615 0.151563 -0.131848 1.000000
-35.974701 16.464399 -729.872925 -0.726123 0.620330 -0.296540 2.000000
-35.973499 21.437099 -730.783630 -0.980673 0.118758 -0.155488 1.000000
-35.972698 25.604700 -734.848389 0.024280 0.176899 0.983929 2.000000
-35.972198 35.611900 -737.119324 0.449533 0.151772 0.880276 2.000000
-35.971600 25.580200 -732.065308 0.797846 0.004120 -0.602847 1.000000
-35.967999 31.306900 -729.004395 -0.325308 0.733157 -0.597207 1.000000
-35.967400 50.041100 -730.399414 0.912754 0.038418 -0.406699 1.000000
-35.966801 32.185799 -728.903625 0.067787 0.167684 0.983508 1.000000
-35.966400 23.262400 -730.130615 -0.852260 0.054400 -0.520283 1.000000
-35.966301 17.218201 -732.926819 -0.864120 0.385247 0.323853 2.000000
-35.963902 47.393398 -726.803284 -0.433888 0.108121 0.894456 1.000000
-35.962799 29.928900 -736.039917 0.367771 0.134618 0.920121 2.000000
-35.961899 25.132200 -734.922119 0.422063 0.804006 -0.418853 2.000000
-35.960300 20.199900 -730.493774 0.064485 0.203190 -0.977014 1.000000
-35.957199 18.838900 -733.581726 0.230049 0.153804 -0.960948 2.000000
-35.955002 28.762600 -735.758972 0.239606 0.178031 0.954408 2.000000
-35.953999 21.786200 -733.877930 0.086806 0.143883 0.985780 2.000000
-35.953800 38.473900 -728.204285 -0.091552 0.394902 0.914150 1.000000
-35.953098 20.152599 -733.858276 0.351738 0.894928 0.274563 2.000000
-35.952801 40.391499 -738.388306 -0.500032 0.183594 -0.846322 2.000000
-35.951900 16.847000 -732.329712 -0.944445 0.271989 -0.184515 2.000000
-35.951000 28.291901 -735.708130 0.171640 0.021887 0.984917 2.000000
-35.951000 27.947201 -729.348572 0.167041 0.573356 0.802097 1.000000
-35.950901 18.088900 -733.306213 -0.792794 0.361823 0.490471 2.000000
-35.949600 39.816898 -737.979675 -0.374801 0.368580 0.850690 2.000000
-35.948101 16.014400 -730.547180 0.693895 0.708817 -0.126841 2.000000
-35.947800 26.909599 -732.300476 -0.784072 0.221149 0.579935 1.000000
-35.945702 49.632500 -729.964600 0.877255 0.479602 0.020151 1.000000
-35.945301 40.622601 -738.638916 0.404351 0.781096 0.475803 2.000000
-35.943600 22.667400 -734.316711 -0.235142 0.042642 -0.971025 2.000000
-35.943600 34.174301 -728.677917 0.041673 0.001016 0.999131 1.000000
-35.942699 38.371101 -737.801086 0.432071 0.242381 0.868658 2.000000
-35.942299 31.593700 -729.020630 -0.297281 0.657231 -0.692583 1.000000
-35.941299 41.134399 -738.553406 0.139877 0.239228 0.960835 2.000000
-35.940899 38.775501 -737.951416 0.480003 0.233144 0.845719 2.000000
-35.939602 44.539200 -731.244629 0.008149 0.203715 0.978996 1.000000
-35.939499 29.338100 -735.930786 0.309246 0.031556 0.950458 2.000000
-35.938499 21.841900 -731.456970 0.950345 0.185202 -0.250091 1.000000
-35.938400 22.411400 -733.965576 -0.017524 0.197434 0.980160 2.000000
-35.935501 24.238199 -729.961182 -0.338682 0.747044 -0.572031 1.000000
-35.935398 21.411100 -733.873230 0.177239 0.206122 0.962341 2.000000
-35.934200 21.477900 -731.186829 -0.975664 0.136518 0.171587 1.000000
-35.934101 48.511200 -726.578918 0.895470 0.444399 0.025356 1.000000
-35.933300 23.920401 -734.351013 -0.085454 0.386577 0.918290 2.000000
-35.932499 36.707600 -737.451904 0.521732 0.249255 0.815884 2.000000
-35.929401 50.110699 -730.078308 0.979662 0.200570 0.005797 1.000000
-35.928101 37.195702 -737.556824 0.317490 0.451994 0.833608 2.000000
-35.928001 21.868999 -730.649170 -0.913943 0.235344 -0.330637 1.000000
-35.927898 20.883699 -734.100830 0.170859 0.969912 -0.173428 2.000000
-35.923199 25.433901 -729.763428 -0.085595 0.961986 -0.259340 1.000000
-35.921001 32.623501 -728.899170 -0.186263 0.183658 -0.965182 1.000000
-35.920300 31.879601 -728.968811 -0.298721 0.798169 -0.523156 1.000000
-35.918900 27.625700 -735.551880 -0.040850 0.093844 0.994748 2.000000
-35.917801 34.355301 -736.941406 0.899068 0.152942 0.410227 2.000000
-35.916901 30.753500 -736.434875 -0.301271 0.509480 -0.806019 2.000000
-35.916698 22.626600 -730.380920 0.429612 0.872697 -0.232021 1.000000
-35.915501 49.714199 -730.473572 0.907858 0.098109 -0.407638 1.000000
-35.914600 47.391602 -730.947388 0.167989 0.109131 -0.979730 1.000000
-35.914200 29.598000 -736.182922 -0.240347 0.143157 -0.960073 2.000000
-35.913700 21.041599 -730.312927 0.649175 0.213278 -0.730127 1.000000
-35.912701 24.231899 -734.555786 0.077692 0.327885 0.941518 2.000000
-35.911701 17.618999 -733.038574 0.956692 0.160554 -0.242822 2.000000
-35.911201 30.584299 -736.196228 0.390373 0.238974 0.889101 2.000000
-35.909401 41.827400 -739.020874 -0.693260 0.519527 0.499481 2.000000
-35.909100 45.334499 -731.208130 0.155689 0.140743 -0.977728 1.000000
-35.907398 17.340900 -732.399475 -0.440558 0.764835 -0.470038 2.000000
-35.907200 18.420799 -733.408813 -0.072327 0.332705 0.940253 2.000000
-35.905399 23.920601 -729.960083 -0.747055 0.285123 -0.600511 1.000000
-35.903900 45.547100 -727.035828 -0.191944 0.205181 0.959718 1.000000
-35.903000 16.492001 -731.673584 -0.934392 0.265564 0.237462 2.000000
-35.902802 22.068701 -733.904724 0.079648 0.199733 0.976608 2.000000
-35.902199 48.260601 -726.441284 -0.633995 0.343890 -0.692669 1.000000
-35.901501 33.714298 -728.774414 0.199336 0.168068 0.965411 1.000000
-35.901001 16.630800 -730.435303 0.429988 0.895220 0.117013 2.000000
-35.899799 16.240299 -730.752075 -0.985764 0.163713 -0.038316 2.000000
-35.899399 45.846100 -726.954285 0.613851 0.456625 -0.643958 1.000000
-35.898499 19.123301 -733.658081 -0.098211 0.241063 0.965527 2.000000
-35.897202 30.238001 -729.134827 -0.335875 0.735030 -0.588998 1.000000
-35.896999 32.267601 -736.649475 0.447572 0.028057 0.893808 2.000000
-35.896801 17.177500 -732.631714 -0.925206 0.302717 0.228814 2.000000
-35.896301 23.614201 -734.294800 -0.077174 0.202123 0.976315 2.000000
-35.893902 22.752199 -734.022583 0.003501 0.213591 0.976917 2.000000
-35.892101 27.192600 -735.460083 0.132681 0.290826 0.947531 2.000000
-35.891899 37.569698 -728.297913 0.013193 0.025370 0.999591 1.000000
-35.890800 24.878500 -734.730774 0.033306 0.424983 0.904588 2.000000
-35.890499 16.269899 -731.382874 -0.888280 0.382392 0.254432 2.000000
-35.888401 36.032001 -737.295288 -0.945017 0.161809 -0.284185 2.000000
-35.888302 49.434299 -730.618713 0.928913 0.289843 -0.230461 1.000000
-35.887901 20.656300 -733.695313 0.132674 0.514657 0.847069 2.000000
-35.887798 22.183701 -731.669678 0.762904 0.542618 -0.351487 1.000000
-35.887798 28.248501 -729.413818 -0.337284 0.699010 -0.630575 1.000000
-35.886299 35.319599 -737.132080 0.874967 0.397437 0.276544 2.000000
-35.886101 41.057598 -727.720276 -0.053390 0.117004 -0.991695 1.000000
-35.884399 36.187401 -728.384521 -0.001071 0.101730 -0.994811 1.000000
-35.884201 43.984299 -731.224426 -0.029536 0.199664 -0.979419 1.000000
-35.881401 22.324100 -730.396179 -0.629859 0.606344 -0.485411 1.000000
-35.881199 26.241899 -735.276123 0.276207 0.550836 -0.787585 2.000000
-35.879601 51.577499 -730.194519 0.480645 0.082677 -0.873009 1.000000
-35.876900 30.156500 -736.288818 -0.412939 0.278848 -0.867021 2.000000
-35.876598 16.805500 -731.973328 -0.936916 0.318688 0.143615 2.000000
-35.876301 40.068699 -727.965027 -0.079116 0.003165 0.996860 1.000000
-35.875801 36.383499 -737.412476 -0.479263 0.179538 -0.859112 2.000000
-35.875801 16.206900 -731.036926 -0.871961 0.487474 0.045314 2.000000
-35.874599 19.594700 -733.753784 0.041039 0.174709 0.983764 2.000000
-35.872398 21.705999 -730.965088 -0.957033 0.275099 -0.091700 1.000000
-35.870098 40.915798 -738.753418 0.091585 0.139162 0.986025 2.000000
-35.869301 26.480801 -729.612122 -0.455005 0.217742 -0.863458 1.000000
-35.868900 17.090099 -732.095703 0.837883 0.063369 -0.542159 2.000000
-35.867199 40.554100 -738.140015 -0.515181 0.701913 0.491840 2.000000
-35.866501 27.660999 -732.524719 -0.472734 0.149820 0.868376 1.000000
-35.864700 19.881001 -733.810730 0.321188 0.814838 0.482574 2.000000
-35.862801 44.268200 -731.247620 0.077273 0.111873 -0.990713 1.000000
-35.862499 32.725101 -736.516113 0.573393 0.217920 0.789767 2.000000
-35.861198 46.346401 -726.970276 0.452922 0.200474 -0.868719 1.000000
-35.860199 15.920900 -731.725220 -0.720596 0.385740 0.576148 2.000000
-35.859901 29.504400 -729.212219 -0.389853 0.051892 -0.919414 1.000000
-35.859699 28.698400 -729.367798 -0.085616 0.995960 0.027094 1.000000
-35.859200 38.285999 -738.086670 0.067067 0.992372 -0.103443 2.000000
-35.859100 22.102900 -731.139587 -0.632033 0.690827 -0.351130 1.000000
-35.858799 39.141102 -728.033630 0.144543 0.014566 0.989391 1.000000
-35.856899 46.917801 -731.013123 -0.204156 0.056777 0.977291 1.000000
-35.856201 26.695700 -731.851379 0.189981 0.322265 -0.927390 1.000000
-35.855499 25.961599 -729.717224 -0.574126 0.197499 -0.794590 1.000000
-35.855301 45.712002 -731.142883 0.202563 0.114492 -0.972553 1.000000
-35.854198 46.483002 -731.051086 0.231790 0.065695 -0.970545 1.000000
-35.853600 47.996700 -726.813721 -0.789877 0.122542 0.600897 1.000000
-35.853100 22.911900 -730.261780 -0.356653 0.804468 -0.475004 1.000000
-35.852798 31.894100 -736.635620 0.173755 0.091130 0.980563 2.000000
-35.852600 37.726799 -737.850098 0.864862 0.345638 0.364072 2.000000
