ply
format ascii 1.0
element vertex 677
property float x
property float y
property float z
property float nx
property float ny
property float nz
property float label
element face 0
property list uchar int vertex_indices
end_header
-51.567699 31.311300 -763.016113 -0.026500 0.788022 0.615076 2.000000
-51.550499 172.731293 -773.468628 0.975224 0.126441 0.181524 1.000000
-51.547100 172.693298 -771.377014 0.969904 0.134176 -0.203181 1.000000
-51.533298 26.211300 -750.733215 0.787520 0.613781 -0.055539 2.000000
-51.529701 196.132904 -790.867920 0.974582 0.003518 0.224001 1.000000
-51.518600 175.904205 -768.609009 -0.852808 0.120175 0.508210 1.000000
-51.506802 175.092499 -769.655396 0.950884 0.140032 -0.276063 1.000000
-51.503799 26.794201 -754.622681 -0.665389 0.652245 -0.363089 2.000000
-51.499401 186.588501 -783.207886 0.543815 0.644833 0.537080 1.000000
-51.497799 173.406799 -770.609985 0.996925 0.020258 -0.075702 1.000000
-51.465900 105.837303 -764.664185 0.797363 0.507702 0.326266 2.000000
-51.458199 101.912804 -761.270508 0.383515 0.540184 0.749078 2.000000
-51.457699 177.853394 -777.736694 -0.698354 0.471680 -0.538349 1.000000
-51.457001 104.572899 -763.293579 0.615842 0.507859 0.602344 2.000000
-51.428600 175.254196 -776.042419 0.912543 0.046626 0.406315 1.000000
-51.422100 108.806000 -769.335693 -0.289528 0.112374 -0.950550 2.000000
-51.402901 178.564697 -779.470215 -0.942623 0.077566 -0.324725 1.000000
-51.401100 173.032898 -774.459595 0.976730 0.161329 0.141319 1.000000
-51.400200 193.480103 -788.814514 0.418923 0.474345 0.774274 1.000000
-51.393299 171.394806 -772.702820 0.946828 0.321446 -0.013758 1.000000
-51.379902 30.314800 -761.709473 0.292626 0.749953 0.593246 2.000000
-51.376701 171.502197 -771.649170 -0.999731 0.019129 0.013088 1.000000
-51.363602 191.339203 -786.839417 -0.784689 0.032286 -0.619048 1.000000
-51.363201 117.501099 -777.220825 0.339534 0.770791 0.539071 2.000000
-51.360699 98.700897 -759.512573 -0.003865 0.395470 0.918471 2.000000
-51.323799 29.357000 -760.262512 0.486117 0.743182 0.459751 2.000000
-51.316898 196.411194 -791.841187 -0.915001 0.308867 -0.259565 1.000000
-51.296101 174.230698 -775.554077 0.464972 0.845543 -0.262410 1.000000
-51.287998 174.011398 -769.515930 0.903172 0.299093 -0.307933 1.000000
-51.285999 172.129593 -770.549683 0.957295 0.196266 -0.212287 1.000000
-51.282600 105.087601 -767.077576 0.998831 0.048248 -0.003080 2.000000
-51.265598 171.823593 -773.881470 0.973293 0.223479 0.052511 1.000000
-51.262501 175.931396 -776.957275 -0.284213 0.773251 -0.566839 1.000000
-51.262001 170.385193 -771.006470 0.992924 0.078121 -0.089442 1.000000
-51.259998 101.042900 -760.778809 0.382113 0.521950 0.762600 2.000000
-51.254799 183.055801 -781.438416 -0.168191 0.876058 -0.451923 1.000000
-51.238300 105.539200 -766.134888 0.981399 0.140549 -0.130772 2.000000
-51.226700 172.991196 -769.697876 0.950320 0.081902 -0.300306 1.000000
-51.219799 190.426895 -786.273376 0.534533 0.843188 0.057522 1.000000
-51.216499 195.178802 -790.694092 0.635315 0.738339 0.226341 1.000000
-51.214001 176.542206 -778.758789 -0.928913 0.289843 0.230461 1.000000
-51.198299 169.885300 -771.879883 0.985156 0.153299 0.077244 1.000000
-51.196999 177.753403 -778.721985 0.859044 0.509320 -0.051348 1.000000
-51.175301 25.929899 -752.183777 0.431802 0.874063 0.222624 2.000000
-51.170601 111.908798 -771.723022 0.061721 0.667451 0.742091 2.000000
-51.166401 115.034500 -774.066528 0.092323 0.672640 0.734188 2.000000
-51.163799 25.788200 -749.374329 0.821485 0.566980 0.060798 2.000000
-51.162399 103.707001 -762.736572 0.563625 0.570395 0.597476 2.000000
-51.161301 187.717804 -784.337219 -0.596860 0.346407 -0.723713 1.000000
-51.142700 174.604904 -768.677917 0.840318 0.502380 -0.203668 1.000000
-51.137402 192.597794 -788.226196 -0.254624 0.828685 -0.498446 1.000000
-51.132301 170.411804 -772.777100 0.971486 0.194297 0.135881 1.000000
-51.117298 112.950104 -772.513672 0.194076 0.510013 0.837986 2.000000
-51.099998 169.427399 -770.554688 0.965370 0.234612 -0.114101 1.000000
-51.091999 116.513100 -775.857971 0.279990 0.861389 0.423810 2.000000
-51.074200 104.936600 -764.295227 0.821578 0.492947 0.286379 2.000000
-51.070202 181.889893 -780.966614 -0.493754 0.101027 -0.863713 1.000000
-51.056900 188.852707 -785.110596 0.327416 0.915900 -0.232220 1.000000
-51.054699 105.821297 -767.969727 -0.664094 0.395807 0.634284 2.000000
-51.050499 171.351700 -769.934326 0.948730 0.126764 -0.289556 1.000000
-51.049400 107.135300 -768.302917 0.122688 0.595704 0.793779 2.000000
-51.042801 25.232000 -747.882874 -0.271122 0.835055 0.478724 2.000000
-51.037998 172.827606 -775.398193 -0.820418 0.192593 -0.538352 1.000000
-51.034000 170.821503 -773.771484 -0.942592 0.091219 -0.321248 1.000000
-51.032501 168.952896 -771.547974 0.994393 0.074775 0.074775 1.000000
-51.013599 27.141701 -756.286011 0.241424 0.924268 0.295709 2.000000
-50.992699 195.537994 -792.320374 -0.454206 0.383587 0.804088 1.000000
-50.991501 175.293900 -778.385315 -0.711604 0.700104 -0.058941 1.000000
-50.985699 174.599503 -776.762207 0.867795 0.468404 0.165924 1.000000
-50.978600 97.800903 -759.104370 -0.397948 0.245923 0.883832 2.000000
-50.974998 104.569099 -766.045898 -0.886579 0.438260 0.148003 2.000000
-50.971100 184.927597 -782.730530 0.645247 0.226540 0.729614 1.000000
-50.970798 169.278595 -772.731018 -0.924093 0.143130 -0.354352 1.000000
-50.959000 168.407700 -770.689514 0.996860 0.003165 -0.079116 1.000000
-50.947102 171.959900 -774.853577 0.818239 0.570633 0.069728 1.000000
-50.943802 111.010002 -771.081787 0.100131 0.576118 0.811210 2.000000
-50.927399 28.391300 -758.808228 0.428170 0.829481 0.358652 2.000000
-50.916901 180.557297 -780.418518 0.573778 0.415038 0.706061 1.000000
-50.913101 173.492493 -768.693420 0.860492 0.449150 -0.240454 1.000000
-50.904202 191.632599 -787.694702 -0.654724 0.199668 -0.729019 1.000000
-50.903702 193.834793 -789.698608 0.848746 0.384661 0.362858 1.000000
-50.896599 102.784302 -762.315613 0.537715 0.557942 0.632110 2.000000
-50.882702 33.770401 -763.234497 0.911587 0.411057 0.006484 2.000000
-50.881901 172.263702 -769.030579 0.943366 0.133610 -0.303659 1.000000
-50.879398 100.033096 -760.339111 0.350478 0.494510 0.795377 2.000000
-50.872601 183.932907 -782.181213 0.618561 0.225923 0.752557 1.000000
-50.867599 173.460800 -776.197998 0.929089 0.101429 0.355677 1.000000
-50.867199 29.630400 -761.180908 0.346402 0.771751 0.533298 2.000000
-50.858898 189.402100 -785.943115 0.762801 0.372455 0.528594 1.000000
-50.858501 170.414993 -769.541504 0.941119 0.086038 -0.326943 1.000000
-50.857800 167.880600 -771.715515 0.943518 0.321505 0.080048 1.000000
-50.839600 169.611801 -773.678284 0.968431 0.153045 0.196773 1.000000
-50.838001 31.946301 -763.371582 -0.434960 0.648273 0.624942 2.000000
-50.837299 25.225000 -751.253479 -0.502562 0.788364 -0.354844 2.000000
-50.831902 186.830902 -783.969788 0.418987 0.902965 -0.095413 1.000000
-50.826801 174.419098 -777.912720 -0.384641 0.920727 -0.065670 1.000000
-50.816502 27.913099 -757.700317 0.371548 0.826891 0.422141 2.000000
-50.806702 30.744400 -762.473022 0.139947 0.723811 0.675657 2.000000
-50.806599 185.817200 -783.294189 0.446283 0.893915 -0.041797 1.000000
-50.806000 179.306503 -779.941895 0.258793 0.662066 0.703346 1.000000
-50.805599 168.621704 -769.691711 -0.967743 0.071360 0.241623 1.000000
-50.798199 114.098099 -773.415894 0.012332 0.563166 0.826252 2.000000
-50.787102 115.680199 -774.960388 0.190312 0.843667 0.502004 2.000000
-50.783798 167.090607 -770.682495 0.999736 0.000999 0.022971 1.000000
-50.781601 26.638399 -755.305115 0.497267 0.821503 0.279031 2.000000
-50.764999 170.956406 -774.725220 0.924620 0.178732 0.336353 1.000000
-50.763901 26.184200 -754.068970 0.542709 0.759792 0.358026 2.000000
-50.760101 109.866600 -770.231689 -0.242869 0.363568 -0.899351 2.000000
-50.754902 173.408401 -777.692871 -0.980356 0.111376 0.162781 1.000000
-50.738400 104.363197 -765.044189 0.921853 0.379269 -0.079633 2.000000
-50.726898 104.085800 -763.842529 0.843428 0.456534 0.283206 2.000000
-50.710098 168.088394 -772.764221 0.896855 0.441054 0.033515 1.000000
-50.687500 194.321503 -790.577881 0.026384 0.951081 -0.307813 1.000000
-50.667801 25.183100 -750.225098 0.705546 0.702613 0.092410 2.000000
-50.665298 167.356400 -769.653076 0.964805 0.171028 -0.199750 1.000000
-50.665199 190.663696 -787.241211 -0.638740 0.275566 -0.718383 1.000000
-50.662899 173.289597 -767.727722 0.798124 0.306239 0.518860 1.000000
-50.653301 168.528107 -773.676880 0.952204 0.114581 0.283159 1.000000
-50.651501 96.857597 -758.440979 0.180438 0.577706 0.796051 2.000000
-50.645802 103.582703 -766.226379 0.841618 0.539569 0.023340 2.000000
-50.640800 172.373398 -776.220276 0.932593 0.123892 0.339001 1.000000
-50.628601 171.310806 -768.793884 0.938692 0.019053 -0.344229 1.000000
-50.627499 28.681299 -759.815918 0.371069 0.832143 0.412124 2.000000
-50.623402 194.791306 -791.458923 0.618487 0.785794 -0.001371 1.000000
-50.618999 107.997803 -768.946289 -0.171862 0.868124 0.465644 2.000000
-50.614498 169.438095 -769.082581 0.825585 0.488484 -0.282478 1.000000
-50.613300 172.484802 -777.298584 0.887382 0.401470 -0.226660 1.000000
-50.608700 192.971207 -789.274292 0.742149 0.629654 0.229675 1.000000
-50.603100 166.890900 -771.844482 0.990464 0.088992 0.105172 1.000000
-50.596199 166.203903 -769.964478 0.937011 0.322310 -0.134636 1.000000
-50.587200 101.454697 -761.492676 0.453791 0.499995 0.737617 2.000000
-50.571400 171.487503 -775.690186 -0.850693 0.225942 -0.474629 1.000000
-50.564701 166.086502 -770.972778 0.976845 0.160936 0.140975 1.000000
-50.556900 24.415100 -747.305908 0.511199 0.714347 0.477896 2.000000
-50.520401 167.028793 -772.854126 0.969491 0.147281 0.195947 1.000000
-50.515301 177.151993 -779.175415 0.293497 0.707280 0.643128 1.000000
-50.513901 169.971603 -774.696899 -0.918108 0.014285 -0.396072 1.000000
-50.501499 188.018494 -785.225098 0.702761 0.624495 0.340782 1.000000
-50.500900 182.404999 -781.682922 0.611794 0.225726 0.758127 1.000000
-50.500301 171.514404 -776.944214 0.935944 0.331847 0.117840 1.000000
-50.471699 168.088501 -768.840820 -0.916251 0.019550 0.400127 1.000000
-50.463200 103.113503 -763.159973 0.780381 0.468877 0.413715 2.000000
-50.460300 98.988602 -759.850281 0.276789 0.514483 0.811601 2.000000
-50.459599 170.333801 -768.563782 0.925958 0.084913 -0.367957 1.000000
-50.457199 165.146500 -770.112305 0.993903 0.106765 -0.027517 1.000000
-50.456699 103.393303 -764.877380 0.876916 0.457961 -0.145912 2.000000
-50.454700 172.141998 -768.083374 0.939753 0.231815 -0.251249 1.000000
-50.427502 25.553101 -752.806274 0.876063 0.269906 0.399581 2.000000
-50.420601 189.693695 -786.809387 0.605654 0.645920 0.464727 1.000000
-50.420200 178.193695 -779.678528 -0.366387 0.625979 -0.688412 1.000000
-50.415699 170.534393 -776.692078 0.906961 0.402315 0.124760 1.000000
-50.389198 165.968796 -772.336304 0.977391 0.005839 0.211359 1.000000
-50.378300 166.651596 -768.967712 0.965527 0.098211 -0.241063 1.000000
-50.372601 192.135605 -788.736328 0.745524 0.253762 0.616279 1.000000
-50.364201 165.071899 -771.199280 0.960970 0.270784 0.056676 1.000000
-50.353901 181.150604 -781.144897 0.540063 0.202334 0.816941 1.000000
-50.348099 170.470306 -775.603271 0.916513 0.339927 0.210841 1.000000
-50.337799 102.632004 -765.725586 0.940416 0.324143 -0.102712 2.000000
-50.329102 105.446899 -767.278076 0.148017 0.581604 0.799892 2.000000
-50.326099 176.052200 -778.738525 -0.038305 0.021741 -0.999030 1.000000
-50.319901 24.846399 -749.267029 0.973235 0.109253 -0.202182 2.000000
-50.306400 165.357697 -769.110718 0.957551 0.209090 -0.198436 1.000000
-50.306000 95.962898 -757.949219 -0.548258 0.435625 0.713894 2.000000
-50.303200 168.798492 -774.585876 0.900247 0.382496 0.207973 1.000000
-50.289101 27.276600 -757.076294 0.159945 0.958349 0.236613 2.000000
-50.288399 164.254105 -770.541016 0.979337 0.186135 0.079077 1.000000
-50.279400 112.259003 -772.212280 0.174269 0.592515 0.786484 2.000000
-50.268002 113.359200 -772.861877 0.176831 0.569789 0.802541 2.000000
-50.268002 32.954201 -763.312317 0.514458 0.012153 -0.857430 2.000000
-50.259102 184.256195 -782.990112 -0.293574 0.779162 -0.553824 1.000000
-50.258400 169.218094 -776.294800 -0.347717 0.936361 -0.048185 1.000000
-50.256302 167.516693 -773.732117 0.910089 0.338199 0.239497 1.000000
-50.246300 188.642502 -786.186829 0.669506 0.518489 0.531913 1.000000
-50.238201 164.060196 -769.464172 -0.997050 0.003152 0.076696 1.000000
-50.234501 164.579193 -772.068787 0.977291 0.056777 0.204156 1.000000
-50.232498 30.092400 -761.886597 -0.233323 0.637331 0.734418 2.000000
-50.226601 193.434402 -790.381470 0.798153 0.487849 0.353491 1.000000
-50.221298 186.815994 -784.806824 0.660470 0.593587 0.459821 1.000000
-50.219799 168.870499 -768.257202 0.916231 0.123365 -0.381185 1.000000
-50.209599 100.495598 -761.005188 0.453439 0.539808 0.709225 2.000000
-50.198002 106.399300 -767.822510 -0.278795 0.108638 -0.954186 2.000000
-50.196400 115.101097 -774.375610 0.109125 0.819163 0.563084 2.000000
-50.195801 179.851303 -780.582581 -0.287450 0.776591 -0.560606 1.000000
-50.194000 171.249603 -767.666992 0.988288 0.064023 -0.138523 1.000000
-50.179501 102.036301 -762.254883 0.640892 0.506322 0.576971 2.000000
-50.175201 185.712799 -784.072083 0.163098 0.982214 -0.093026 1.000000
-50.173901 102.466103 -764.520630 0.871546 0.477853 -0.109835 2.000000
-50.168999 24.473400 -748.270813 0.858651 0.479006 0.182408 2.000000
-50.159698 163.136200 -770.277527 0.973919 0.224566 0.032424 1.000000
-50.141102 166.299698 -773.557922 0.954509 0.155757 0.254269 1.000000
-50.136700 104.584801 -766.643982 0.298704 0.583032 0.755546 2.000000
-50.116299 163.700897 -771.440613 -0.691179 0.611999 -0.384355 1.000000
-50.115501 183.329498 -782.588501 -0.290670 0.779885 -0.554338 1.000000
-50.112202 193.914703 -791.513672 0.550323 0.834449 -0.028964 1.000000
-50.111500 110.486298 -770.881775 0.183060 0.940073 0.287665 2.000000
-50.100300 191.268295 -788.308105 0.716098 0.483491 0.503429 1.000000
-50.093601 108.688599 -769.478516 -0.215400 0.760873 -0.612107 2.000000
-50.092300 167.267700 -768.153381 -0.938285 0.072378 0.338204 1.000000
-50.089199 111.477203 -771.575928 0.193947 0.798695 0.569624 2.000000
-50.085098 162.933197 -769.257813 0.965200 0.245433 -0.090289 1.000000
-50.079300 167.830002 -775.909119 -0.897343 0.292193 -0.330756 1.000000
-50.075298 27.867300 -758.622375 0.327282 0.885319 0.330298 2.000000
-50.065601 165.866394 -768.254272 0.935330 0.056251 -0.349277 1.000000
-50.062000 25.041401 -751.905273 0.554231 0.832034 0.023379 2.000000
-50.060001 164.493607 -768.574585 0.955079 0.049335 -0.292216 1.000000
-50.045200 170.228897 -767.600098 0.929240 0.174669 -0.325583 1.000000
-50.044300 165.216995 -773.202576 0.969214 0.131527 0.208145 1.000000
-50.043598 26.711800 -755.988586 0.366632 0.805309 0.465895 2.000000
-50.023201 25.975700 -754.767029 0.400237 0.814824 0.419371 2.000000
-50.015999 31.725700 -762.829102 0.320569 0.137776 -0.937152 2.000000
-50.000500 174.921494 -778.336487 0.224031 0.455580 0.861543 1.000000
-49.999001 167.864304 -774.806396 0.892919 0.406402 0.193733 1.000000
-49.996700 162.018906 -769.820190 0.983770 0.176215 -0.033843 1.000000
-49.995499 25.513399 -753.742615 0.628008 0.761176 0.161920 2.000000
-49.979900 172.124802 -767.199707 -0.522052 0.162119 0.837365 1.000000
-49.977299 97.859100 -759.263916 0.257435 0.541393 0.800388 2.000000
-49.960800 162.543793 -771.198425 0.979744 0.179355 0.089068 1.000000
-49.953201 107.225197 -768.416077 -0.012481 0.777959 0.628191 2.000000
-49.949200 101.518402 -764.920715 -0.997164 0.059291 -0.046355 2.000000
-49.946800 28.995899 -760.634583 0.066921 0.810174 0.582357 2.000000
-49.935299 163.145401 -768.255005 0.951775 0.111896 -0.285664 1.000000
-49.933300 167.014496 -775.348328 -0.989813 0.140758 -0.021395 1.000000
-49.911201 161.630402 -768.843018 0.954099 0.232151 -0.189210 1.000000
-49.887901 192.553696 -789.955688 0.608633 0.791081 0.061291 1.000000
-49.883900 169.263504 -767.347717 -0.919974 0.123124 0.372140 1.000000
-49.877998 163.891296 -772.749817 0.948067 0.071332 0.309970 1.000000
-49.869099 101.848602 -763.762512 0.273271 0.955796 -0.108524 2.000000
-49.865200 99.637604 -760.567322 0.476222 0.536376 0.696788 2.000000
-49.858398 23.615400 -747.191284 0.865883 0.489288 0.104134 2.000000
-49.854698 190.015793 -787.637573 -0.063996 0.941659 -0.330429 1.000000
-49.846600 187.322906 -785.622803 -0.690042 0.055949 -0.721603 1.000000
-49.844898 160.683701 -769.266174 0.989039 0.137334 -0.054241 1.000000
-49.841801 161.457703 -770.798523 0.990781 0.037367 0.130217 1.000000
-49.827099 94.988800 -757.195374 0.311741 0.008694 -0.950127 2.000000
-49.824699 114.265701 -773.589417 0.135611 0.615465 0.776410 2.000000
-49.819199 165.328903 -775.042786 0.976470 0.204093 -0.069661 1.000000
-49.813202 24.490101 -750.694092 0.852777 0.517304 0.071887 2.000000
-49.789501 181.660706 -781.948425 -0.287250 0.779225 -0.557043 1.000000
-49.784901 162.941696 -772.385071 0.973721 0.042336 0.223774 1.000000
-49.780899 168.148407 -767.635498 0.934373 0.173032 -0.311458 1.000000
-49.780701 101.137901 -762.019897 0.738446 0.444389 0.507165 2.000000
-49.769699 173.314102 -777.865784 0.349364 0.227594 0.908926 1.000000
-49.766602 178.666702 -780.320801 -0.162774 0.894539 -0.416299 1.000000
-49.758900 166.489594 -767.506775 0.944931 0.071684 -0.319322 1.000000
-49.757900 184.648804 -783.772278 -0.106992 0.904569 -0.412684 1.000000
-49.750099 164.201401 -767.613220 -0.928221 0.062235 0.366786 1.000000
-49.744499 159.964005 -768.506470 -0.993889 0.009797 0.109948 1.000000
-49.741100 161.811401 -767.855286 -0.953522 0.023682 0.300391 1.000000
-49.722900 166.261002 -774.504578 0.966280 0.180771 0.183372 1.000000
-49.710201 165.300400 -767.444702 0.950678 0.095723 -0.295038 1.000000
-49.707298 109.449402 -770.037476 0.724783 0.107758 0.680499 2.000000
-49.706200 164.237106 -774.666992 0.992079 0.060229 0.110231 1.000000
-49.703602 176.509201 -779.383118 0.354580 0.812514 0.462703 1.000000
-49.703201 160.144699 -770.231079 0.973030 0.213045 0.088457 1.000000
-49.698700 23.983299 -749.015381 0.765741 0.611668 0.198754 2.000000
-49.687401 32.636799 -762.542603 -0.790030 0.177416 0.586836 2.000000
-49.685001 161.907104 -771.999817 0.970857 0.195192 0.139058 1.000000
-49.675598 171.946594 -777.404480 0.216376 0.146410 0.965270 1.000000
-49.667099 30.891199 -762.219971 -0.324698 0.257720 0.910028 2.000000
-49.666401 96.639000 -758.511108 0.205975 0.627218 0.751113 2.000000
-49.663300 103.523598 -766.022827 0.222849 0.542523 0.809942 2.000000
-49.663200 192.988297 -791.096130 0.830580 0.553248 -0.063673 1.000000
-49.660198 191.767899 -789.344177 -0.031225 0.875645 -0.481944 1.000000
-49.659901 180.378296 -781.309875 -0.287450 0.776591 -0.560606 1.000000
-49.658699 170.867493 -766.898071 -0.759974 0.222242 0.610777 1.000000
-49.657700 189.053207 -787.114014 0.657541 0.355826 0.664100 1.000000
-49.652401 177.493195 -779.758423 0.609447 0.572306 0.548671 1.000000
-49.645599 100.831596 -764.135376 -0.308777 0.939932 0.145547 2.000000
-49.638302 28.346201 -759.693481 0.183077 0.855849 0.483741 2.000000
-49.634300 24.955999 -752.949829 0.659649 0.707106 0.254685 2.000000
-49.628101 22.939899 -746.256226 -0.264859 0.831749 0.487897 2.000000
-49.596600 158.892303 -768.885925 -0.996490 0.037869 -0.074656 1.000000
-49.591900 163.105194 -767.314087 0.940389 0.108352 -0.322381 1.000000
-49.591702 160.861801 -771.576721 0.932532 0.354177 0.070305 1.000000
-49.582802 163.265900 -774.406128 -0.892801 0.025356 -0.449737 1.000000
-49.548199 170.913101 -777.090576 0.394766 0.022149 0.918515 1.000000
-49.545200 159.157394 -770.263184 0.967933 0.231545 0.097426 1.000000
-49.544800 169.258804 -766.367126 -0.880658 0.148946 0.449729 1.000000
-49.544601 98.500900 -759.904114 0.384881 0.501807 0.774633 2.000000
-49.535801 186.056503 -785.032227 -0.437752 0.526955 -0.728486 1.000000
-49.530899 167.610992 -766.809814 0.923181 0.059947 -0.379663 1.000000
-49.526299 159.185699 -767.908325 -0.976255 0.087407 0.198206 1.000000
-49.524399 160.676102 -767.789978 0.949333 0.188780 -0.251254 1.000000
-49.520599 164.244904 -773.671082 0.945548 0.201151 0.255886 1.000000
-49.519901 100.875099 -763.128723 0.942172 0.281143 -0.182400 2.000000
-49.519199 107.962601 -768.943970 0.380427 0.666982 0.640632 2.000000
-49.515202 187.979599 -786.356384 0.650127 0.165958 0.741480 1.000000
-49.511398 169.804993 -776.753479 -0.336569 0.077873 -0.938433 1.000000
-49.497002 27.340700 -757.852783 0.317083 0.852256 0.416074 2.000000
-49.481899 29.743401 -761.283325 -0.316366 0.434808 0.843122 2.000000
-49.478001 159.844498 -771.203979 -0.964929 0.001199 -0.262509 1.000000
-49.469101 161.931900 -774.022217 -0.961986 0.085595 -0.259340 1.000000
-49.459000 158.121399 -768.248413 0.998905 0.019668 -0.042441 1.000000
-49.456902 112.580200 -772.835205 0.410909 0.410909 0.813823 2.000000
-49.448799 183.621902 -783.369019 0.232137 0.972595 -0.013095 1.000000
-49.433601 102.384003 -765.257690 0.371207 0.564169 0.737508 2.000000
-49.427898 23.355801 -748.137695 0.770457 0.585296 0.252635 2.000000
-49.427502 162.741898 -773.374390 0.954252 0.153053 0.256863 1.000000
-49.409302 24.322901 -751.640015 0.654724 0.729019 0.199668 2.000000
-49.406601 158.134796 -770.270020 0.962363 0.253118 0.098935 1.000000
-49.395802 157.628403 -769.335205 0.986093 0.155946 0.057454 1.000000
-49.394199 23.822800 -749.997070 0.760126 0.649763 0.004139 2.000000
-49.391800 100.229103 -761.564697 0.787854 0.451358 0.419002 2.000000
-49.380699 161.669296 -772.950012 0.945548 0.201151 0.255886 1.000000
-49.375000 182.631607 -782.708374 0.581343 0.725451 0.368457 1.000000
-49.371700 111.689796 -772.305298 0.294135 0.891364 -0.344899 2.000000
-49.368099 26.870800 -756.887878 0.320110 0.894818 0.311176 2.000000
-49.361500 99.982597 -763.594788 -0.821711 0.559927 0.106168 2.000000
-49.356400 168.494705 -776.306580 0.225093 0.244426 0.943180 1.000000
-49.354698 160.877808 -773.647095 -0.994200 0.054675 -0.092613 1.000000
-49.350800 190.855804 -788.908630 0.714466 0.185915 0.674517 1.000000
-49.348801 105.719704 -767.468079 0.084482 0.548414 0.831928 2.000000
-49.337799 165.994400 -766.683289 0.933000 0.024451 -0.359044 1.000000
-49.337399 166.043198 -775.612183 -0.538213 0.494619 -0.682407 1.000000
-49.323200 164.591095 -766.732300 -0.859782 0.028705 0.509855 1.000000
-49.318802 110.723602 -771.621887 0.493559 0.020283 0.869476 2.000000
-49.317600 162.161301 -766.950989 0.886433 0.220498 -0.406960 1.000000
-49.317101 157.127304 -768.375916 0.994133 0.102613 0.034204 1.000000
-49.315601 160.223999 -772.383484 0.940762 0.245235 0.234151 1.000000
-49.310699 158.700699 -771.144287 0.963624 0.015837 0.266793 1.000000
-49.308399 192.141907 -790.664673 0.401657 0.901941 -0.158662 1.000000
-49.292099 95.662003 -757.723022 0.231330 0.575996 0.784038 2.000000
-49.291901 158.082596 -767.242371 -0.933773 0.034968 0.356155 1.000000
-49.280701 160.106201 -766.990479 0.920617 0.188663 -0.341863 1.000000
-49.274300 175.148697 -779.025513 0.473961 0.581147 0.661536 1.000000
-49.265701 22.610800 -747.193604 0.823801 0.504209 0.259086 2.000000
-49.255199 22.065300 -745.726074 -0.184665 0.373625 0.909012 2.000000
-49.253502 157.123199 -770.210205 0.985174 0.163217 0.052840 1.000000
-49.248100 94.179604 -756.605774 -0.608677 0.500768 0.615422 2.000000
-49.245300 26.143900 -755.463928 0.272151 0.850279 0.450510 2.000000
-49.240002 168.154694 -765.987427 -0.632812 0.202686 0.747307 1.000000
-49.234402 173.973007 -778.496887 0.326239 0.709286 0.624886 1.000000
-49.225101 159.769806 -773.281616 0.973756 0.183132 0.135139 1.000000
-49.223598 109.906303 -771.012573 0.642952 0.656175 0.395027 2.000000
-49.221100 184.981705 -784.634277 0.494163 0.790339 0.362171 1.000000
-49.208401 157.580307 -771.101807 -0.675199 0.497603 -0.544515 1.000000
-49.205898 31.785200 -762.203979 -0.472216 0.042186 0.880473 2.000000
-49.201199 161.122299 -766.935486 0.895263 0.099163 -0.434363 1.000000
-49.181900 104.295403 -766.552490 0.012175 0.520809 0.853586 2.000000
-49.180302 163.456299 -766.471985 0.886566 0.179060 -0.426542 1.000000
-49.171398 156.569397 -769.267517 0.986685 0.159661 -0.031013 1.000000
-49.168800 99.896004 -762.565674 -0.974374 0.198368 0.106046 2.000000
-49.164700 159.247803 -772.183228 0.949754 0.191035 0.247939 1.000000
-49.153099 106.540604 -768.095276 0.264789 0.632640 0.727773 2.000000
-49.152901 179.122604 -781.037415 0.528449 0.565592 0.633125 1.000000
-49.145199 156.586502 -767.482178 0.947717 0.158178 -0.277150 1.000000
-49.131500 108.490303 -769.797485 0.436180 0.829845 0.348000 2.000000
-49.124001 25.396000 -754.253174 0.190505 0.841524 0.505514 2.000000
-49.115501 166.903305 -766.136719 -0.890347 0.011942 0.455125 1.000000
-49.112499 159.149094 -766.733826 -0.922774 0.116894 0.367184 1.000000
-49.111500 190.013901 -788.424805 -0.427567 0.376704 -0.821755 1.000000
-49.109501 97.318604 -759.251709 0.407654 0.509158 0.758008 2.000000
-49.105301 155.622299 -769.872620 -0.812404 0.391039 -0.432537 1.000000
-49.102299 27.656601 -758.781616 0.020130 0.878997 0.476403 2.000000
-49.100399 98.996201 -760.677002 0.676751 0.522257 0.518898 2.000000
-49.097500 155.736694 -768.017090 -0.771592 0.550220 -0.319224 1.000000
-49.094501 158.385406 -772.932007 0.985744 0.067130 -0.154280 1.000000
-49.091900 186.541504 -785.814819 0.582348 0.173948 0.794111 1.000000
-49.090698 167.534103 -776.051514 0.304450 0.298567 0.904526 1.000000
-49.048100 180.945801 -782.101379 0.507304 0.642136 0.574720 1.000000
-49.043598 99.032303 -763.626709 -0.673152 0.732071 0.104582 2.000000
-49.031799 191.374603 -790.041626 0.750421 0.659288 0.046990 1.000000
-49.000900 154.875107 -768.648071 -0.858836 0.440859 -0.260854 1.000000
-48.995201 172.730804 -778.142212 -0.538763 0.121185 -0.833696 1.000000
-48.991199 23.271200 -749.153381 0.757511 0.621746 0.199020 2.000000
-48.977100 178.038498 -780.621887 -0.480661 0.264286 -0.836133 1.000000
-48.962002 156.260498 -770.646179 -0.942008 0.125332 -0.311307 1.000000
-48.956100 24.316601 -752.570984 0.078779 0.954386 0.287995 2.000000
-48.949001 157.372894 -766.601196 -0.835404 0.287802 0.468262 1.000000
-48.946098 157.743195 -772.098511 0.980086 0.167630 0.106451 1.000000
-48.944500 155.432404 -767.007874 0.974956 0.072538 -0.210236 1.000000
-48.941898 98.914398 -762.519775 0.552061 0.832958 -0.037546 2.000000
-48.934399 29.023899 -760.491028 -0.381500 0.514619 0.767870 2.000000
-48.930099 23.809099 -750.895996 0.781594 0.608899 0.135476 2.000000
-48.929401 188.251495 -787.125671 0.519504 0.845468 0.123691 1.000000
-48.918800 165.274002 -766.048279 -0.864499 0.080124 0.496208 1.000000
-48.913399 156.727005 -772.412170 -0.964127 0.258851 0.058773 1.000000
-48.913101 154.420593 -769.568176 0.958593 0.269645 0.091602 1.000000
-48.896599 101.397400 -764.739319 0.244470 0.549669 0.798811 2.000000
-48.871101 153.790802 -768.416321 0.992893 0.098497 -0.066797 1.000000
-48.867699 183.918396 -784.203613 -0.461072 0.387172 -0.798442 1.000000
-48.867199 164.712494 -775.106689 0.220836 0.285540 0.932576 1.000000
-48.850700 30.668200 -761.641724 -0.346693 0.371347 0.861339 2.000000
-48.843102 154.137695 -767.409729 -0.871459 0.482892 -0.085879 1.000000
-48.839802 162.113403 -766.051880 0.843201 0.066161 -0.533511 1.000000
-48.838501 107.211197 -768.777771 0.493275 0.842362 0.217041 2.000000
-48.831799 176.996201 -780.239685 0.092129 0.967988 -0.233478 1.000000
-48.819500 171.357605 -777.642700 -0.470263 0.152872 -0.869185 1.000000
-48.807899 108.861603 -770.716125 0.915263 0.207689 0.345193 2.000000
-48.798401 153.362595 -769.321228 0.921846 0.382879 0.060033 1.000000
-48.796799 154.941803 -770.693115 0.910028 0.257720 0.324698 1.000000
-48.794399 160.679001 -766.063477 -0.831911 0.096600 0.546437 1.000000
-48.793701 189.145599 -788.020874 0.659646 0.475012 0.582435 1.000000
-48.786900 164.299896 -765.847778 0.893601 0.070006 -0.443369 1.000000
-48.768902 175.749207 -779.709473 0.068214 0.994139 -0.083870 1.000000
-48.768200 155.078201 -772.017212 0.876712 0.479813 0.033981 1.000000
-48.766899 152.482895 -768.397217 -0.525232 0.822302 -0.218974 1.000000
-48.766499 103.018402 -765.752319 0.014859 0.509265 0.860482 2.000000
-48.766102 162.537598 -774.449219 0.123280 0.245263 0.961586 1.000000
-48.730202 166.180298 -765.403320 -0.742334 0.139469 0.655354 1.000000
-48.729099 21.802601 -746.788330 0.692669 0.633995 0.343890 2.000000
-48.728001 94.890404 -757.320374 0.387751 0.645152 0.658352 2.000000
-48.726002 158.342606 -766.151184 0.881656 0.001322 -0.471891 1.000000
-48.722599 97.952797 -762.998718 0.812255 0.493662 0.310707 2.000000
-48.710400 26.313200 -756.335815 0.306731 0.890269 0.336656 2.000000
-48.703999 21.256300 -745.272278 0.887196 0.390842 -0.245205 2.000000
-48.703400 96.345100 -758.768982 0.452389 0.669402 0.589274 2.000000
-48.700298 156.172104 -766.317627 0.921908 0.105166 -0.372861 1.000000
-48.699402 170.337204 -777.320923 0.069806 0.936458 0.343763 1.000000
-48.688099 97.850502 -760.110413 0.692557 0.542364 0.475611 2.000000
-48.687901 183.020599 -783.769897 0.623130 0.521808 0.582602 1.000000
-48.685001 24.815001 -753.466797 0.240527 0.799170 0.550884 2.000000
-48.670502 187.093201 -786.596130 0.202376 0.974631 0.095601 1.000000
-48.668701 185.344299 -785.410278 0.498528 0.727089 0.472028 1.000000
-48.666901 105.033401 -767.110474 0.259042 0.393803 0.881939 2.000000
-48.666500 190.447693 -789.596191 0.692524 0.698666 0.179657 1.000000
-48.665501 98.208900 -761.851685 0.528360 0.837429 -0.139817 2.000000
-48.663200 181.790100 -782.865112 0.639283 0.432309 0.635945 1.000000
-48.654800 100.538803 -764.277527 0.249264 0.466414 0.848720 2.000000
-48.642899 163.524994 -774.724121 0.243771 0.318778 0.915946 1.000000
-48.641300 152.787704 -767.185303 0.771373 0.593724 -0.229075 1.000000
-48.638500 153.796097 -771.666077 -0.859714 0.498031 0.113385 1.000000
-48.634102 151.968307 -769.347717 -0.936687 0.199029 -0.288104 1.000000
-48.632000 153.747803 -770.458679 0.965649 0.234680 0.111569 1.000000
-48.630798 163.112793 -765.684692 -0.845323 0.017753 0.533960 1.000000
-48.630501 22.599600 -748.407288 0.720074 0.630265 0.290275 2.000000
-48.621498 159.560898 -765.908691 0.855657 0.077531 -0.511703 1.000000
-48.619400 154.823196 -766.268799 -0.873692 0.196618 0.444977 1.000000
-48.613300 153.629105 -766.534485 0.946082 0.093685 -0.310083 1.000000
-48.603802 179.612793 -781.724915 0.010552 0.976654 -0.214559 1.000000
-48.603699 150.898193 -768.193604 -0.984640 0.163910 -0.060140 1.000000
-48.592701 168.943100 -776.839478 0.333629 0.701435 0.629826 1.000000
-48.556801 152.815002 -771.371277 -0.819562 0.512807 0.255629 1.000000
-48.556499 157.543198 -773.025024 -0.567625 0.170137 -0.805516 1.000000
-48.554699 28.368601 -759.528687 0.075339 0.837260 0.541589 2.000000
-48.544498 150.065994 -767.538025 0.750184 0.644948 -0.145827 1.000000
-48.538502 107.862297 -770.353271 0.925156 0.297932 0.235209 2.000000
-48.535000 152.720093 -770.193115 0.939189 0.267745 0.215028 1.000000
-48.529800 26.832800 -757.437927 0.123355 0.889009 0.440960 2.000000
-48.528599 174.449905 -779.195190 -0.401052 0.589200 -0.701428 1.000000
-48.524601 22.728100 -749.913696 -0.329122 0.932281 -0.150101 2.000000
-48.505299 151.172806 -767.147217 0.965503 0.201417 -0.165032 1.000000
-48.504200 23.681400 -751.887329 0.297971 0.687749 0.661978 2.000000
-48.500198 93.673401 -756.172424 0.213788 0.447011 0.868606 2.000000
-48.495399 29.857901 -760.893127 -0.449332 0.492126 0.745595 2.000000
-48.490101 25.598900 -755.048218 0.319166 0.842288 0.434378 2.000000
-48.481201 166.578201 -775.927002 0.206272 0.814392 0.542419 1.000000
-48.469700 161.202805 -774.071899 -0.356977 0.196409 -0.913231 1.000000
-48.466702 149.849106 -768.546997 -0.497514 0.738833 -0.454539 1.000000
-48.463799 152.146194 -766.431030 -0.957083 0.165930 0.237611 1.000000
-48.452499 157.106094 -765.764404 -0.760671 0.355196 0.543337 1.000000
-48.431499 173.395401 -778.830017 -0.530809 0.127219 -0.837889 1.000000
-48.419899 106.997002 -769.679871 0.957829 0.130076 0.256209 2.000000
-48.416901 151.667892 -771.123474 0.440047 0.818138 -0.370148 1.000000
-48.412201 150.967300 -769.231384 0.896817 0.410261 0.165544 1.000000
-48.408699 189.615906 -789.032715 0.722009 0.635942 0.272546 1.000000
-48.404900 148.818497 -767.299194 -0.815388 0.558995 -0.150556 1.000000
-48.403198 105.735703 -767.798706 0.535873 0.508995 0.673620 2.000000
-48.389400 165.071503 -765.199524 0.858646 0.025937 -0.511912 1.000000
-48.369598 184.496902 -784.945618 0.536294 0.185814 0.823324 1.000000
-48.366699 178.474503 -781.296021 0.629547 0.278913 0.725174 1.000000
-48.350300 97.433502 -761.221802 -0.155155 0.987247 0.035628 2.000000
-48.335201 96.749298 -762.358276 0.146457 0.921981 0.358471 2.000000
-48.332802 102.118896 -765.188599 0.060871 0.415276 0.907656 2.000000
-48.330002 150.750397 -766.060181 -0.974273 0.067573 0.215003 1.000000
-48.324299 159.228699 -773.458130 -0.364043 0.449888 -0.815521 1.000000
-48.322800 150.358002 -770.755920 0.021470 0.988750 -0.148030 1.000000
-48.318699 148.342102 -768.299927 0.962314 0.263596 0.066845 1.000000
-48.317299 106.359299 -768.837402 0.824921 0.495574 0.271867 2.000000
-48.307499 149.680496 -766.568481 0.744588 0.611229 -0.268306 1.000000
-48.303799 165.446594 -775.604004 0.328371 0.337450 0.882213 1.000000
-48.300499 103.768402 -766.296875 0.219742 0.539368 0.812893 2.000000
-48.300201 161.403397 -765.509827 -0.825890 0.006826 0.563790 1.000000
-48.279800 147.727600 -766.772522 0.986131 0.136797 -0.093974 1.000000
-48.276299 149.988800 -769.577087 0.957409 0.190416 0.217048 1.000000
-48.272301 180.771698 -782.742676 -0.619249 0.049597 -0.783627 1.000000
-48.271400 27.226101 -758.341309 0.023465 0.821270 0.570058 2.000000
-48.260300 99.714798 -763.819824 0.259838 0.515007 0.816855 2.000000
-48.254501 96.955597 -759.848572 0.799794 0.587694 0.122252 2.000000
-48.248501 155.661194 -765.581909 0.856594 0.150819 -0.493457 1.000000
-48.240501 147.018204 -767.572021 0.978855 0.204554 -0.001156 1.000000
-48.234798 152.911102 -765.796387 0.890390 0.033676 -0.453951 1.000000
-48.225201 20.882799 -746.086426 0.685276 0.672497 0.279542 2.000000
-48.222301 163.933395 -765.070679 0.856456 0.068685 -0.511631 1.000000
-48.218102 148.878494 -770.345093 0.855648 0.454420 -0.247728 1.000000
-48.211201 154.048706 -765.656006 -0.896914 0.047348 0.439664 1.000000
-48.210499 160.287003 -765.293579 -0.820571 0.031934 0.570651 1.000000
-48.205399 171.917603 -778.204773 -0.406591 0.233827 -0.883181 1.000000
-48.197498 186.131302 -786.177673 0.576815 0.546367 0.607262 1.000000
-48.174999 177.441803 -780.934387 0.572234 0.397431 0.717354 1.000000
-48.169701 155.826401 -772.408081 -0.405796 0.187626 -0.894497 1.000000
-48.162701 158.576202 -765.307495 -0.651615 0.086007 0.753658 1.000000
-48.135101 146.475693 -766.614685 0.876035 0.429837 -0.218637 1.000000
-48.130699 188.118896 -787.859070 0.574448 0.009597 0.818485 1.000000
-48.130600 98.784897 -763.205811 -0.259947 0.023188 -0.965344 2.000000
-48.126701 167.556702 -776.520386 0.466539 0.301144 0.831657 1.000000
-48.123501 95.480499 -758.470886 -0.157236 0.304901 -0.939315 2.000000
-48.119099 162.410507 -765.167603 0.776260 0.046831 -0.628671 1.000000
-48.117500 147.484299 -769.953491 0.853363 0.518163 -0.057263 1.000000
-48.098999 151.628601 -765.572388 0.893521 0.287896 -0.344580 1.000000
-48.097500 21.606100 -747.787781 0.726874 0.596784 0.339858 2.000000
-48.093601 25.123899 -754.238525 0.274086 0.837743 0.472295 2.000000
-48.090401 146.029800 -767.674622 0.981777 0.041350 0.185486 1.000000
-48.082600 148.966202 -765.867126 -0.928171 0.300914 0.218975 1.000000
-48.080799 96.509499 -760.884888 0.933765 0.265386 -0.240111 2.000000
-48.076302 147.204102 -768.600830 -0.604108 0.563495 -0.563495 1.000000
-48.069302 148.346405 -769.375122 -0.999288 0.003050 -0.037613 1.000000
-48.068501 22.732599 -750.844727 -0.633039 0.710357 -0.307660 2.000000
-48.067799 20.358700 -745.027283 0.842925 0.537892 -0.012256 2.000000
-48.058601 176.320694 -780.471680 0.486143 0.482825 0.728385 1.000000
-48.043900 170.789993 -777.935120 0.444301 0.470533 0.762362 1.000000
-48.031399 94.148499 -756.943726 0.599802 0.633404 0.488914 2.000000
-48.012402 183.325897 -784.542603 -0.318604 0.700282 -0.638825 1.000000
-48.006599 21.999201 -749.450073 0.884794 0.465751 -0.014680 2.000000
-48.001499 29.282200 -760.161987 -0.340719 0.557099 0.757332 2.000000
-47.999401 188.695496 -788.705078 0.316292 0.920253 -0.230421 1.000000
-47.997398 160.073196 -773.915771 -0.287283 0.672467 -0.682097 1.000000
-47.993801 174.994202 -779.880920 0.572568 0.029114 0.819340 1.000000
-47.988499 145.977600 -769.558594 0.131742 0.951469 -0.278122 1.000000
-47.987598 147.969101 -765.806274 0.917229 0.278780 -0.284558 1.000000
-47.983601 181.912903 -783.675415 0.256807 0.929330 0.265320 1.000000
-47.963001 149.989594 -765.341309 -0.945267 0.026574 0.325213 1.000000
-47.960899 145.744293 -765.906921 0.967809 0.076571 -0.239756 1.000000
-47.960701 144.686707 -766.621704 0.935100 0.334254 -0.117733 1.000000
-47.952702 164.358994 -775.398682 0.388773 0.360669 0.847805 1.000000
-47.941601 145.029404 -767.786011 -0.714027 0.422452 -0.558300 1.000000
-47.933601 105.403503 -768.912476 0.968845 0.198902 0.147572 2.000000
-47.928799 24.204800 -752.775818 -0.219111 0.967419 0.126854 2.000000
-47.912102 25.785700 -755.873901 0.234929 0.890957 0.388593 2.000000
-47.909302 95.617897 -761.343506 -0.953158 0.265285 -0.145307 2.000000
-47.908001 154.391602 -772.042480 -0.349941 0.594085 0.724296 1.000000
-47.903198 156.771393 -772.864014 -0.438054 0.671239 -0.597952 1.000000
-47.897099 101.293503 -764.737183 0.014865 0.504067 0.863536 2.000000
-47.896500 158.281296 -773.335022 0.396735 0.365373 0.842083 1.000000
-47.891102 144.473404 -769.130676 -0.673418 0.716370 -0.182544 1.000000
-47.887798 104.403000 -767.002380 0.502474 0.650360 0.569695 2.000000
-47.860401 146.848694 -765.494812 0.903214 0.262887 -0.339256 1.000000
-47.860100 104.902000 -767.998901 0.936922 0.249939 0.244354 2.000000
-47.857800 169.629593 -777.439880 0.480324 0.463818 0.744420 1.000000
-47.852501 27.950701 -758.947388 -0.344567 0.548395 0.761929 2.000000
-47.836201 143.666702 -766.797485 0.960407 0.277396 0.025890 1.000000
-47.834900 162.946396 -774.943970 0.450948 0.349682 0.821199 1.000000
-47.831902 154.856506 -765.050415 0.764616 0.064555 -0.641245 1.000000
-47.826801 157.440903 -764.999817 -0.630637 0.061491 0.773638 1.000000
-47.808399 187.100296 -787.298279 0.616770 0.528901 0.582974 1.000000
-47.808399 95.880501 -759.352173 0.926104 0.246108 0.285940 2.000000
-47.799900 97.731499 -762.622681 0.371989 0.448621 0.812627 2.000000
-47.791302 161.982697 -774.491577 -0.548734 0.575748 -0.606140 1.000000
-47.790798 179.473907 -782.331787 -0.287128 0.772550 -0.566325 1.000000
-47.784199 26.320999 -756.824524 0.046689 0.911102 0.409529 2.000000
-47.782501 143.960907 -765.812683 0.980724 0.061071 -0.185607 1.000000
-47.764900 102.766296 -765.724915 0.314063 0.537255 0.782766 2.000000
-47.759602 142.857300 -768.759521 -0.839645 0.051692 -0.540670 1.000000
-47.757401 172.620499 -778.919983 0.522956 0.367526 0.769053 1.000000
-47.756802 168.387207 -776.990173 0.402935 0.621814 0.671559 1.000000
-47.750801 143.998001 -767.807495 -0.657265 0.597058 -0.459918 1.000000
-47.749401 173.786194 -779.499573 -0.287128 0.772550 -0.566325 1.000000
-47.745201 184.808105 -785.674316 0.465630 0.542400 0.699279 1.000000
-47.742802 152.544098 -764.979675 -0.827233 0.060805 0.558559 1.000000
-47.739201 148.152802 -764.728027 0.961921 0.153122 -0.226411 1.000000
-47.731701 95.307098 -760.327393 0.573207 0.818668 0.034867 2.000000
-47.720001 145.641998 -768.588074 -0.952686 0.220266 -0.209456 1.000000
-47.717800 159.479599 -764.867920 -0.659512 0.015337 0.751537 1.000000
-47.713100 20.736799 -747.045410 0.860229 0.463893 0.211680 2.000000
-47.704300 161.042297 -764.779907 -0.652721 0.001380 0.757597 1.000000
-47.698601 156.279907 -764.994080 0.764809 0.049848 -0.642326 1.000000
-47.697399 144.841507 -765.328918 0.944309 0.031859 -0.327513 1.000000
-47.694698 21.211399 -748.774170 0.873412 0.474463 0.109711 2.000000
-47.686501 142.623093 -766.971924 0.983996 0.001135 0.178186 1.000000
-47.675201 151.007797 -764.886108 0.829912 0.023397 -0.557404 1.000000
-47.673199 93.104797 -756.287781 0.364350 0.886135 0.286382 2.000000
-47.658401 142.104507 -766.056824 -0.408619 0.886571 -0.216848 1.000000
-47.655899 163.142899 -764.603821 -0.537116 0.020501 0.843259 1.000000
-47.655102 100.442001 -764.227295 0.039469 0.472269 0.880570 2.000000
-47.653702 153.686203 -764.861023 -0.766074 0.058708 0.640066 1.000000
-47.643501 114.387398 -759.932007 -0.713607 0.192658 0.673534 1.000000
-47.642601 115.751602 -759.844971 0.240880 0.205497 -0.948550 1.000000
-47.638500 141.248596 -768.349426 -0.085636 0.992235 0.090203 1.000000
-47.604401 94.599701 -758.224976 -0.157367 0.302418 -0.940095 2.000000
-47.598000 166.188599 -776.190796 0.427099 0.449835 0.784369 1.000000
-47.593399 143.129501 -765.269775 0.926442 0.271813 -0.260428 1.000000
-47.585800 112.964203 -760.026917 0.922520 0.355889 0.149334 1.000000
-47.578800 117.083801 -759.749084 -0.351311 0.254297 0.901062 1.000000
-47.578701 94.612099 -761.061890 0.948635 0.208237 0.238179 2.000000
-47.575199 178.411804 -781.954773 0.680589 0.308771 0.664423 1.000000
-47.572800 149.147598 -764.716309 -0.858918 0.054116 0.509246 1.000000
-47.555698 146.594193 -764.457520 0.961033 0.183242 -0.206972 1.000000
-47.547699 141.100403 -766.078491 0.750768 0.654553 -0.088926 1.000000
-47.545200 26.884600 -757.646423 -0.275695 0.645413 0.712345 2.000000
-47.544601 19.483601 -744.747681 0.945287 0.324426 -0.034351 2.000000
-47.542999 111.393097 -759.923828 -0.921598 0.011601 0.387973 1.000000
-47.538200 152.777206 -771.612305 -0.025908 0.275118 0.961061 1.000000
-47.533298 139.539093 -767.874084 0.734398 0.677797 0.035376 1.000000
-47.531200 140.262299 -765.457520 0.935303 0.332582 -0.120816 1.000000
-47.517502 141.590302 -767.001709 -0.588354 0.734227 -0.338749 1.000000
-47.516701 160.862305 -774.360718 0.086730 0.935353 0.342918 1.000000
-47.511200 23.470900 -751.976379 0.180505 0.802412 0.568817 2.000000
-47.510700 96.452797 -761.782593 0.585852 0.518319 0.622995 2.000000
-47.503300 19.983000 -746.163696 0.745331 0.569959 0.345873 2.000000
-47.503201 110.360001 -760.151184 0.889513 0.064617 -0.452318 1.000000
-47.496498 -1.074700 -742.047974 0.816721 0.526468 0.236216 1.000000
-47.494701 24.580099 -753.634583 0.286834 0.784436 0.549897 2.000000
-47.475800 118.307602 -759.559875 -0.146631 0.281155 -0.948394 1.000000
-47.473400 187.721603 -788.533630 0.810518 0.423643 -0.404459 1.000000
-47.470901 162.085999 -764.346802 0.606952 0.100915 -0.788306 1.000000
-47.461498 94.193001 -760.123901 0.575076 0.817359 0.034811 2.000000
-47.459099 145.582794 -764.698120 0.922931 0.032728 -0.383573 1.000000
-47.456001 141.746399 -765.118286 0.948354 0.175018 -0.264562 1.000000
-47.455002 28.723200 -759.463623 -0.227428 0.555420 0.799866 2.000000
-47.434799 176.803406 -781.210083 0.524965 0.521610 0.672558 1.000000
-47.434399 25.374201 -754.997375 0.089953 0.898149 0.430392 2.000000
-47.434299 119.693398 -759.511414 -0.305530 0.145296 -0.941032 1.000000
-47.415199 138.616196 -767.497375 -0.984321 0.057901 0.166614 1.000000
-47.413799 108.772697 -760.205200 0.921057 0.146310 -0.360898 1.000000
-47.411201 140.593002 -767.022522 0.959956 0.278697 -0.028489 1.000000
-47.410801 103.986603 -768.249817 -0.440047 0.818138 -0.370148 2.000000
-47.409302 94.795998 -759.279297 0.966986 0.250700 -0.045694 2.000000
-47.404499 150.742493 -771.049927 -0.393294 0.523848 0.755581 1.000000
-47.397999 142.381104 -767.927429 -0.990987 0.102437 0.086323 1.000000
-47.395000 165.120300 -775.943481 0.493275 0.217041 0.842362 1.000000
-47.394901 158.261505 -764.625183 -0.638260 0.061675 0.767346 1.000000
-47.391998 180.699402 -783.296021 -0.435839 0.291073 -0.851658 1.000000
-47.382198 139.275497 -765.543213 -0.547790 0.777766 -0.308232 1.000000
-47.381901 107.753899 -760.251526 -0.501357 0.464955 0.729698 1.000000
-47.376900 93.686401 -757.542419 0.324515 0.815246 -0.479650 2.000000
-47.370899 103.436600 -766.587830 0.477695 0.707388 0.520970 2.000000
-47.369301 183.761093 -785.219482 -0.321013 0.746880 -0.582341 1.000000
-47.353600 136.939301 -767.246277 -0.878628 0.112135 0.464154 1.000000
-47.353298 171.245499 -778.544312 0.339256 0.903214 0.262887 1.000000
-47.346001 182.448196 -784.324219 0.499633 0.321986 0.804172 1.000000
-47.340900 175.585495 -780.652710 0.356688 0.779549 0.514857 1.000000
-47.335701 185.769501 -786.636108 0.582603 0.306549 0.752729 1.000000
-47.315102 149.359406 -770.677002 0.319055 0.134410 0.938157 1.000000
-47.313202 143.843002 -764.575989 -0.909249 0.148478 0.388870 1.000000
-47.310501 138.137299 -765.142517 0.955838 0.285344 -0.070376 1.000000
-47.308601 121.322098 -759.476685 -0.050202 0.233866 -0.970972 1.000000
-47.272900 138.811096 -766.466125 -0.897156 0.411974 -0.159335 1.000000
-47.272099 167.013702 -776.802185 0.119753 0.991098 0.058166 1.000000
-47.264599 151.868805 -764.410522 -0.798658 0.020835 0.601424 1.000000
-47.260899 101.946503 -765.294189 0.317490 0.524896 0.789737 2.000000
-47.258900 148.193802 -770.236023 -0.722279 0.399804 -0.564332 1.000000
-47.258301 106.311996 -760.254395 -0.717319 0.089117 0.691022 1.000000
-47.254299 155.486206 -764.506714 0.652239 0.110925 -0.749853 1.000000
-47.250999 150.140503 -764.459106 -0.736164 0.176006 0.653517 1.000000
-47.237999 99.453598 -763.690186 -0.029054 0.554785 0.831486 2.000000
-47.237701 135.495499 -766.910278 0.414537 0.821133 0.392301 1.000000
-47.237400 139.761200 -764.525513 0.597207 0.325308 -0.733157 1.000000
-47.235298 160.214493 -764.343018 -0.600188 0.079161 0.795932 1.000000
-47.227600 20.366699 -747.866516 0.967726 0.209481 0.140083 2.000000
-47.216599 170.245300 -778.206726 0.437456 0.731295 0.523297 1.000000
-47.209702 21.924101 -750.051819 0.633892 0.018111 0.773209 2.000000
-47.208199 93.378998 -758.966797 0.942945 0.162389 -0.290662 2.000000
-47.200001 142.573593 -764.452271 0.912429 0.141996 -0.383811 1.000000
-47.195000 159.450607 -773.949219 -0.006320 0.350147 0.936674 1.000000
-47.195000 104.140701 -760.203918 -0.846564 0.268872 0.459388 1.000000
-47.190701 155.823700 -772.687683 -0.684462 0.050013 -0.727331 1.000000
-47.180199 140.867096 -764.686523 0.923910 0.102052 -0.368748 1.000000
-47.174500 27.629499 -758.259399 -0.391166 0.675051 0.625536 2.000000
-47.168701 137.740906 -766.635315 0.966512 0.210899 -0.146206 1.000000
-47.167900 136.724304 -764.648071 0.943427 0.221740 -0.246531 1.000000
-47.166599 137.245499 -765.735596 -0.726130 0.671783 -0.146434 1.000000
-47.164299 19.011200 -745.552673 0.834264 0.513277 0.201374 2.000000
-47.158298 105.281097 -760.206299 0.849166 0.344341 -0.400432 1.000000
-47.156601 146.446503 -769.859985 -0.485083 0.589149 0.646218 1.000000
-47.156502 143.742294 -769.205383 -0.503800 0.319444 -0.802584 1.000000
-47.153400 134.063705 -766.603882 0.826280 0.475072 -0.302603 1.000000
-47.153301 93.104897 -760.335327 0.576387 0.816432 0.034890 2.000000
-47.149101 168.895401 -777.648804 0.478583 0.205535 0.853647 1.000000
-47.138000 163.466507 -775.508179 -0.339858 0.596784 -0.726874 1.000000
-47.131500 174.257202 -780.161316 0.382002 0.849761 0.363292 1.000000
-47.126999 19.442101 -747.350586 0.896858 0.328699 -0.295978 2.000000
-47.122601 18.587900 -744.557678 0.842456 0.531702 -0.086954 2.000000
-47.115501 138.529800 -764.240112 0.966107 0.095214 -0.239940 1.000000
-47.114300 98.492798 -762.955200 -0.169917 0.193264 -0.966321 2.000000
-47.093601 122.466400 -759.465271 -0.649765 0.052838 0.758297 1.000000
-47.090900 154.494202 -764.437500 -0.618487 0.001371 0.785794 1.000000
-47.080002 112.226501 -759.502197 -0.631882 0.004130 0.775054 1.000000
