ply
format ascii 1.0
element vertex 679
property float x
property float y
property float z
property float nx
property float ny
property float nz
property float label
element face 0
property list uchar int vertex_indices
end_header
-43.750000 75.835701 -756.887085 0.908923 0.074949 -0.410174 1.000000
-43.746899 123.575104 -739.009399 -0.601281 0.208671 -0.771309 2.000000
-43.740700 121.343399 -740.538513 -0.315972 0.662730 -0.678934 2.000000
-43.736500 79.650803 -756.578491 0.902207 0.025172 -0.430569 1.000000
-43.733700 171.490997 -789.003906 0.548372 0.362869 0.753401 2.000000
-43.719101 173.874405 -790.171814 0.638678 0.312063 0.703354 2.000000
-43.714001 43.798401 -747.112793 -0.467900 0.039331 0.882906 1.000000
-43.707802 77.417397 -753.017822 0.917915 0.167791 0.359552 1.000000
-43.704102 276.833588 -766.948975 0.408890 0.912538 -0.009086 1.000000
-43.702202 45.630299 -747.348816 -0.365422 0.174890 0.914265 1.000000
-43.700500 69.402000 -751.174072 0.402075 0.083141 0.911824 1.000000
-43.699699 199.784897 -806.432495 0.559127 0.455647 0.692650 2.000000
-43.684101 183.081604 -795.068481 0.135332 0.502038 0.854192 2.000000
-43.681599 56.591702 -755.377686 0.504891 0.221176 -0.834366 1.000000
-43.681400 257.572906 -770.721680 -0.644589 0.705672 0.294164 1.000000
-43.676399 267.838287 -769.053711 -0.760372 0.256606 -0.596648 1.000000
-43.671101 81.409401 -754.785889 0.996657 0.061951 0.053256 1.000000
-43.669601 31.895201 -745.607422 -0.501731 0.086213 0.860717 1.000000
-43.653099 27.969500 -744.961975 -0.869945 0.006682 0.493103 1.000000
-43.646500 176.341797 -791.375427 0.950967 0.143113 0.274189 2.000000
-43.641399 17.627399 -743.974487 -0.742299 0.049867 0.668211 1.000000
-43.632900 263.468689 -769.962891 -0.549404 0.727589 -0.410816 1.000000
-43.618900 49.525700 -747.633789 -0.483741 0.183077 0.855849 1.000000
-43.611099 35.285301 -745.967773 -0.515441 0.152122 0.843315 1.000000
-43.599201 154.227005 -774.219604 -0.549725 0.446756 0.705841 2.000000
-43.592800 77.839798 -755.898987 -0.999630 0.019243 -0.019243 1.000000
-43.586601 119.452103 -741.886230 0.758008 0.492787 0.427300 2.000000
-43.575901 73.031403 -756.481201 0.905804 0.019777 -0.423236 1.000000
-43.572498 141.651398 -768.442871 -0.273212 0.287667 0.917934 2.000000
-43.547298 140.227402 -767.640015 -0.037904 0.801610 0.596645 2.000000
-43.547100 79.336700 -754.957214 0.991131 0.065312 -0.115727 1.000000
-43.544102 25.877001 -744.699280 -0.449658 0.197375 0.871120 1.000000
-43.526798 245.289597 -773.405273 -0.335345 0.784611 -0.521469 1.000000
-43.526402 207.685104 -812.855774 0.402254 0.597588 0.693599 2.000000
-43.523300 7.223000 -747.148682 -0.423881 0.297487 -0.855469 1.000000
-43.521599 -1.575800 -741.360229 0.687818 0.638804 0.344726 1.000000
-43.517399 33.709900 -745.720093 -0.399666 0.115583 0.909345 1.000000
-43.509102 65.087601 -749.875671 0.138715 0.194710 0.971003 1.000000
-43.500702 195.411804 -804.069519 0.305110 0.470964 0.827708 2.000000
-43.498699 149.027496 -770.342529 0.556448 0.702620 -0.443498 2.000000
-43.495499 5.166600 -746.628479 0.480853 0.150541 0.863781 1.000000
-43.494301 240.224594 -774.176575 0.919410 0.096996 -0.381152 1.000000
-43.489899 201.775894 -807.668518 0.410740 0.562499 0.717557 2.000000
-43.478500 261.088501 -770.522888 0.951402 0.239542 0.193528 1.000000
-43.470299 250.983597 -772.364624 -0.863781 0.150541 0.480853 1.000000
-43.469501 64.798897 -755.862427 -0.524631 0.060158 0.849202 1.000000
-43.462299 246.844406 -773.234924 -0.829732 0.084550 0.551722 1.000000
-43.443001 190.408798 -800.619019 -0.094637 0.476010 0.874333 2.000000
-43.439701 47.988300 -747.497803 0.506900 0.734757 -0.450761 1.000000
-43.438999 10.174800 -742.485474 0.490252 0.830491 -0.264458 1.000000
-43.436199 75.132202 -755.421021 -0.981537 0.001145 0.191268 1.000000
-43.430000 19.518000 -744.050720 0.603634 0.205328 -0.770367 1.000000
-43.425400 144.080505 -769.277588 0.347043 0.185562 -0.919309 2.000000
-43.416500 248.498199 -772.951721 -0.665625 0.746223 -0.009727 1.000000
-43.401299 156.110504 -775.429016 -0.399948 0.152293 0.903797 2.000000
-43.396702 29.817900 -752.085327 -0.272061 0.102836 -0.956769 2.000000
-43.370800 62.792599 -755.648621 -0.826246 0.031939 0.562403 1.000000
-43.365002 76.697899 -754.778198 0.996884 0.013831 -0.077665 1.000000
-43.356602 71.380699 -755.957886 0.962656 0.028277 -0.269248 1.000000
-43.353100 32.064499 -755.154480 -0.164100 0.352044 -0.921486 2.000000
-43.333500 71.068802 -752.032471 0.886054 0.044915 0.461401 1.000000
-43.328899 184.363403 -796.292419 0.114483 0.105041 0.987856 2.000000
-43.320301 163.906403 -780.776917 -0.672407 0.508078 0.538261 2.000000
-43.315498 93.085098 -754.133911 -0.129246 0.430348 -0.893362 2.000000
-43.310501 10.449400 -748.153015 0.593660 0.449843 0.667240 1.000000
-43.297298 67.766098 -751.119019 0.777431 0.142304 0.612658 1.000000
-43.297001 188.539795 -799.065674 0.162074 0.971167 0.174836 2.000000
-43.290199 72.699097 -752.390320 0.928595 0.150845 0.339055 1.000000
-43.267601 75.437103 -753.435120 0.980146 0.141426 0.138967 1.000000
-43.264900 2.944200 -741.542175 -0.169270 0.696903 0.696903 1.000000
-43.259102 203.414505 -809.032471 0.472541 0.817070 0.330305 2.000000
-43.251801 208.704697 -814.103088 -0.563947 0.220944 -0.795706 2.000000
-43.247700 69.797501 -755.689514 0.954208 0.062592 -0.292522 1.000000
-43.239498 177.512497 -792.326172 0.687581 0.369226 0.625223 2.000000
-43.232700 60.329498 -755.307495 0.810785 0.040609 -0.583933 1.000000
-43.222698 73.662697 -754.952271 0.955660 0.051897 -0.289863 1.000000
-43.222000 137.119904 -765.414185 0.069524 0.557607 0.827188 2.000000
-43.205601 138.691406 -766.505920 0.558071 0.216772 -0.800978 2.000000
-43.203602 157.629501 -776.265381 0.214541 0.239138 -0.946987 2.000000
-43.203201 55.303501 -748.257080 -0.187400 0.192642 0.963208 1.000000
-43.198299 54.352901 -754.850586 -0.776738 0.100932 0.621683 1.000000
-43.185101 -1.120700 -745.549194 0.528869 0.811139 -0.249701 1.000000
-43.176899 152.155304 -771.935181 -0.684422 0.527122 0.503695 2.000000
-43.164299 67.903000 -755.440918 0.951597 0.003703 -0.307325 1.000000
-43.160801 3.634800 -746.438477 0.623338 0.472124 0.623338 1.000000
-43.150501 185.942703 -797.401428 0.442428 0.889097 -0.117321 2.000000
-43.147301 97.883797 -753.675720 -0.230489 0.729099 -0.644429 2.000000
-43.146900 52.618698 -747.823914 -0.073042 0.224078 0.971830 1.000000
-43.142502 161.050705 -778.349487 -0.510327 0.316371 0.799672 2.000000
-43.137402 -2.859000 -745.213989 0.689533 0.637370 0.343952 1.000000
-43.133400 191.803299 -801.668884 0.023700 0.790480 0.612029 2.000000
-43.131199 50.110100 -754.297180 -0.704089 0.023891 0.709710 1.000000
-43.128399 14.315200 -743.044678 -0.531672 0.229621 0.815230 1.000000
-43.112499 52.708099 -754.470581 -0.137216 0.032886 -0.989995 1.000000
-43.092098 61.539600 -749.698181 0.280648 0.117266 0.952620 1.000000
-43.091999 197.336899 -805.303589 0.430741 0.519859 0.737705 2.000000
-43.076401 72.093002 -754.548218 0.955647 0.021071 -0.293759 1.000000
-43.072102 178.918106 -793.163513 0.597351 0.331862 0.730096 2.000000
-43.057999 174.852203 -791.203979 0.629140 0.336517 0.700670 2.000000
-42.996899 66.145798 -755.104004 0.946858 0.011257 -0.321456 1.000000
-42.966301 57.976700 -754.846985 0.560990 0.319877 -0.763525 1.000000
-42.959599 210.096298 -815.717896 0.496972 0.591312 0.635113 2.000000
-42.954700 12.895000 -748.905212 0.462229 0.332868 0.821915 1.000000
-42.950699 147.034698 -769.678101 0.571656 0.484483 -0.662182 2.000000
-42.938999 73.889801 -753.400818 0.991844 0.041655 0.120462 1.000000
-42.938099 8.473900 -747.980591 0.625257 0.135796 0.768514 1.000000
-42.935501 12.215700 -742.609070 -0.556422 0.096832 0.825238 1.000000
-42.906300 172.463394 -789.991577 0.169497 0.427364 0.888049 2.000000
-42.904598 162.929398 -779.398926 -0.504147 0.457865 0.732253 2.000000
-42.900299 70.532799 -754.124573 0.983828 0.082484 -0.158991 1.000000
-42.898300 165.825897 -781.766174 -0.766565 0.551220 0.329446 2.000000
-42.883499 63.429798 -750.270020 0.480598 0.012048 0.876858 1.000000
-42.883099 47.713501 -753.786072 -0.713095 0.679502 0.172548 1.000000
-42.875900 30.450100 -753.520996 0.448391 0.892719 0.044704 2.000000
-42.872002 65.895599 -751.060425 0.903047 0.128202 0.409964 1.000000
-42.862801 1.720200 -746.226624 0.634858 0.159093 0.756072 1.000000
-42.825298 61.721298 -754.671082 -0.905804 0.019777 0.423236 1.000000
-42.822300 63.933899 -754.675415 0.948031 0.029034 -0.316852 1.000000
-42.814999 68.786797 -754.122192 -0.952753 0.011151 0.303543 1.000000
-42.809502 69.643997 -752.768188 0.990982 0.132651 0.018950 1.000000
-42.803200 41.005600 -746.372620 -0.376553 0.169094 0.910832 1.000000
-42.791500 59.483799 -749.075989 -0.033524 0.162994 -0.986057 1.000000
-42.785900 211.059006 -817.041321 -0.189576 0.953258 -0.235289 2.000000
-42.771801 27.766600 -751.733398 0.854316 0.218476 -0.471606 1.000000
-42.770802 45.259998 -753.426025 -0.964790 0.262684 -0.013316 1.000000
-42.767601 153.514008 -772.875977 -0.602306 0.639216 0.478154 2.000000
-42.744400 150.608307 -770.224976 -0.455142 0.112013 0.883345 2.000000
-42.734299 159.152298 -777.020325 -0.453920 0.611368 0.648218 2.000000
-42.729698 57.525200 -748.928101 0.319267 0.105532 0.941770 1.000000
-42.713402 180.371002 -794.115417 0.427054 0.379427 0.820768 2.000000
-42.696899 181.791199 -794.865784 0.333465 0.075128 0.939764 2.000000
-42.675999 24.178400 -744.189819 -0.418536 0.035874 0.907492 1.000000
-42.665501 67.065598 -753.859985 -0.951953 0.018715 0.305673 1.000000
-42.656101 68.106697 -752.494324 0.984164 0.094700 0.149842 1.000000
-42.649700 55.851898 -754.228271 -0.933537 0.257673 0.249225 1.000000
-42.624401 51.202900 -747.507385 -0.173072 0.217991 0.960482 1.000000
-42.622501 16.799400 -743.158875 0.473622 0.844549 -0.249839 1.000000
-42.620800 91.696999 -754.554016 0.165048 0.918346 -0.359721 2.000000
-42.617699 37.810600 -745.872986 -0.435747 0.151001 0.887313 1.000000
-42.609600 198.576797 -806.240112 0.357714 0.427050 0.830463 2.000000
-42.607601 22.217699 -743.866272 -0.425878 0.172967 0.888094 1.000000
-42.606499 204.825104 -810.681213 0.220945 0.376045 0.899874 2.000000
-42.598598 206.550095 -812.318787 0.348503 0.649558 0.675737 2.000000
-42.593601 65.444702 -753.685425 0.957067 0.038885 -0.287246 1.000000
-42.592999 59.466000 -754.197815 -0.917628 0.009060 0.397337 1.000000
-42.592701 200.524002 -807.453125 0.381692 0.344604 0.857647 2.000000
-42.554798 167.934494 -783.124817 -0.575633 0.404097 0.710881 2.000000
-42.550098 187.167206 -798.168579 0.073610 0.470825 0.879151 2.000000
-42.543900 155.408401 -774.324524 -0.496803 0.584375 0.641633 2.000000
-42.541599 30.899099 -744.945923 -0.312705 0.207999 0.926797 1.000000
-42.515202 39.473000 -746.003479 -0.312915 0.161282 0.935987 1.000000
-42.497799 46.584202 -746.995483 0.052991 0.237843 0.969857 1.000000
-42.487301 142.996902 -768.604370 0.222890 0.149897 -0.963250 2.000000
-42.478100 64.396797 -751.562988 0.987191 0.064255 0.146034 1.000000
-42.469799 51.504501 -753.633972 -0.806693 0.069961 0.586815 1.000000
-42.461899 43.128399 -746.347717 -0.170339 0.248132 0.953632 1.000000
-42.447102 62.879799 -753.599121 -0.956552 0.021037 0.290802 1.000000
-42.443600 44.632999 -746.770325 -0.073354 0.227521 0.971006 1.000000
-42.443401 26.025101 -751.592529 0.482673 0.640762 -0.597035 1.000000
-42.442200 43.757401 -752.858582 -0.826470 0.346074 -0.444050 1.000000
-42.435001 192.997406 -802.375488 -0.133833 0.093565 0.986577 2.000000
-42.433998 29.099400 -744.754517 0.473380 0.847822 -0.238973 1.000000
-42.424301 31.037800 -751.664917 -0.602577 0.646218 -0.468298 1.000000
-42.415199 66.448502 -752.447388 0.996024 0.079464 0.040276 1.000000
-42.414501 41.555199 -752.714783 -0.986165 0.151627 -0.066998 1.000000
-42.411999 62.029701 -750.990417 0.976777 0.082320 0.197813 1.000000
-42.408600 176.052094 -792.259888 0.400455 0.442269 0.802517 2.000000
-42.397900 54.032700 -748.597229 0.293188 0.065295 0.953822 1.000000
-42.393200 14.399300 -749.523987 0.087557 0.083009 -0.992695 1.000000
-42.383499 36.305401 -745.627319 0.498105 0.282624 -0.819765 1.000000
-42.379299 212.628296 -818.849426 -0.035967 0.904505 0.424944 2.000000
-42.376499 202.173798 -808.755005 0.449210 0.429749 0.783279 2.000000
-42.364700 49.202702 -753.292419 -0.759338 0.023773 0.650262 1.000000
-42.360401 60.865002 -753.467224 0.942127 0.024157 -0.334385 1.000000
-42.356602 27.270599 -744.345215 0.518824 0.834630 -0.184972 1.000000
-42.355999 32.568001 -745.131104 -0.315627 0.093764 0.944239 1.000000
-42.336800 53.885101 -753.648926 -0.838605 0.046047 0.542791 1.000000
-42.315102 145.188507 -769.181396 -0.295445 0.190028 0.936270 2.000000
-42.298901 194.184998 -803.616089 -0.077894 0.528261 0.845501 2.000000
-42.297600 57.413601 -753.572327 -0.939400 0.011379 0.342634 1.000000
-42.282600 183.032196 -795.836670 0.842472 0.092972 0.530657 2.000000
-42.272400 20.418200 -743.495483 -0.489288 0.104134 0.865883 1.000000
-42.269901 18.618200 -743.288879 0.481699 0.838741 -0.253931 1.000000
-42.269699 -0.858400 -739.874329 -0.271840 0.726497 0.631114 1.000000
-42.264702 34.713600 -745.347717 -0.209269 0.069756 0.975367 1.000000
-42.256500 60.346500 -750.363220 0.924727 0.119541 0.361372 1.000000
-42.231899 24.433001 -751.354675 0.456887 0.536634 -0.709421 1.000000
-42.224602 189.419205 -799.974915 0.245753 0.465557 0.850213 2.000000
-42.221001 164.931702 -780.301880 -0.647958 0.543612 0.533514 2.000000
-42.214901 46.625301 -752.853088 -0.788925 0.018025 0.614225 1.000000
-42.179100 141.013794 -767.739990 0.001374 0.784741 0.619822 2.000000
-42.165401 56.107800 -749.341125 0.920814 0.102617 0.376261 1.000000
-42.161201 48.877800 -747.463684 0.021150 0.125788 -0.991832 1.000000
-42.152100 207.603806 -813.613220 0.334043 0.672975 0.659939 2.000000
-42.099899 36.283298 -751.630371 -0.509887 0.145472 0.847852 1.000000
-42.096699 196.163498 -804.932495 0.124434 0.459118 0.879618 2.000000
-42.096699 58.799999 -752.842285 0.940146 0.016449 -0.340376 1.000000
-42.093601 157.047394 -775.369507 -0.510574 0.101543 0.853817 2.000000
-42.091301 58.525299 -750.101379 0.955216 0.073280 0.286693 1.000000
-42.087799 25.633400 -744.083008 -0.267184 0.142233 0.953091 1.000000
-42.068100 10.777900 -741.872070 -0.285034 0.439107 0.852021 1.000000
-42.065399 -1.825100 -746.482788 0.687818 0.638804 0.344726 1.000000
-42.060200 55.403000 -752.841675 0.934027 0.008895 -0.357091 1.000000
-42.053699 15.406500 -742.685303 -0.386357 0.139088 0.911802 1.000000
-42.049801 38.120201 -751.917603 0.895734 0.001311 -0.444588 1.000000
-42.040199 170.181702 -784.321411 0.111153 0.160012 -0.980837 2.000000
-42.037998 190.953796 -800.984619 0.109544 0.571089 0.813546 2.000000
-42.031799 60.103100 -751.907715 0.997910 0.045698 0.045698 1.000000
-42.029499 177.499405 -793.279114 0.429415 0.439138 0.789152 2.000000
-41.990002 184.793594 -797.017700 0.786273 0.251670 0.564303 2.000000
-41.975601 160.686005 -777.262329 0.579063 0.720138 -0.382214 2.000000
-41.958500 13.415500 -742.346924 -0.335213 0.047888 0.940925 1.000000
-41.930000 203.529999 -809.805298 0.182589 0.250215 0.950817 2.000000
-41.923100 52.578400 -752.530823 -0.915358 0.022262 0.402024 1.000000
-41.909901 50.588402 -752.489075 -0.893001 0.014596 0.449818 1.000000
-41.906200 208.877808 -814.997192 -0.546348 0.414300 -0.727914 2.000000
-41.876900 178.964203 -794.166016 0.506752 0.392692 0.767460 2.000000
-41.875099 22.806000 -750.453613 -0.384881 0.501807 -0.774633 1.000000
-41.865898 139.445602 -766.809082 0.219931 0.492948 0.841803 2.000000
-41.860100 175.710205 -790.717712 0.119715 0.940234 -0.318792 2.000000
-41.847500 213.850098 -819.994507 0.542139 0.511927 0.666345 2.000000
-41.839298 57.555599 -751.910522 0.983793 0.053146 -0.171249 1.000000
-41.827000 52.193298 -748.650330 0.243340 0.146004 0.958889 1.000000
-41.822102 39.850601 -751.823608 0.641376 0.043891 -0.765970 1.000000
-41.816101 28.277201 -750.586670 -0.584375 0.496803 -0.641633 1.000000
-41.812302 162.282898 -777.788208 -0.688324 0.703654 0.176297 2.000000
-41.755798 21.005600 -750.315979 0.904859 0.170108 0.390247 1.000000
-41.753601 188.053101 -799.159302 0.165544 0.410261 0.896817 2.000000
-41.751400 163.981705 -779.111877 0.768629 0.435719 -0.468358 2.000000
-41.744301 45.126499 -752.174683 -0.848958 0.095919 0.519682 1.000000
-41.743000 25.898701 -750.181519 0.821872 0.031985 -0.568774 1.000000
-41.732601 166.721207 -781.294800 -0.546131 0.376586 0.748281 2.000000
-41.722500 48.008999 -752.185303 0.913969 0.046563 -0.403104 1.000000
-41.722401 180.639008 -795.287720 0.520597 0.368148 0.770354 2.000000
-41.702202 54.040699 -752.042603 -0.963188 0.001205 0.268825 1.000000
-41.701801 56.372299 -750.883423 0.997987 0.063348 0.003115 1.000000
-41.674599 158.581696 -776.037476 -0.410888 0.417283 0.810584 2.000000
-41.663799 172.261902 -785.739319 -0.782966 0.393915 0.481451 2.000000
-41.659599 214.749496 -821.239990 -0.307660 0.710357 0.633039 2.000000
-41.645802 54.741402 -750.025879 0.985371 0.086980 0.146555 1.000000
-41.641201 50.477100 -748.513123 0.970252 0.104722 0.218275 1.000000
-41.623299 42.677799 -751.876282 0.675735 0.012539 -0.737038 1.000000
-41.616901 211.622803 -817.909912 0.161115 0.796539 0.582724 2.000000
-41.610802 205.407196 -811.717529 0.007736 0.131508 0.991285 2.000000
-41.576599 18.496599 -749.715698 0.846977 0.054419 -0.528837 1.000000
-41.569401 32.435799 -750.935425 0.630438 0.282500 0.723009 1.000000
-41.560699 16.266600 -749.555176 0.626266 0.172185 0.760357 1.000000
-41.552799 210.141998 -816.459229 0.269504 0.684125 0.677746 2.000000
-41.542702 197.461594 -805.949280 0.060641 0.411010 0.909612 2.000000
-41.533798 185.984497 -798.020813 0.500978 0.340921 0.795483 2.000000
-41.512901 24.211800 -749.937927 0.641925 0.009705 -0.766706 1.000000
-41.498199 154.924194 -773.186279 0.170375 0.574450 0.800612 2.000000
-41.490200 41.824402 -746.369080 -0.088658 0.133579 -0.987064 1.000000
-41.461899 34.068600 -751.232971 -0.786676 0.265366 -0.557425 1.000000
-41.426800 215.755997 -822.462280 -0.128474 0.952296 0.276815 2.000000
-41.419998 168.981796 -782.864502 -0.532430 0.354414 0.768706 2.000000
-41.413601 47.509800 -747.893616 0.776839 0.366616 0.511971 1.000000
-41.412701 46.712002 -751.388306 -0.904588 0.033306 0.424983 1.000000
-41.396900 53.020100 -750.247620 0.988760 0.146778 -0.028445 1.000000
-41.390800 51.819000 -751.253418 0.958844 0.038754 -0.281277 1.000000
-41.375000 49.340801 -751.407227 -0.955289 0.013594 0.295361 1.000000
-41.373901 199.143997 -806.973022 0.127569 0.460109 0.878650 2.000000
-41.366901 23.241699 -743.693420 -0.190162 0.127194 0.973478 1.000000
-41.326500 192.029694 -801.840027 0.215765 0.749744 0.625563 2.000000
-41.315102 45.416401 -747.495483 0.510353 0.119998 0.851552 1.000000
-41.270401 43.960499 -751.066772 -0.897572 0.025265 0.440143 1.000000
-41.264999 41.312500 -751.248779 0.527222 0.072087 -0.846664 1.000000
-41.255299 21.608999 -743.337280 -0.199738 0.133583 0.970701 1.000000
-41.253101 174.144608 -786.978394 -0.625766 0.551551 0.551551 2.000000
-41.239101 38.676201 -745.664795 0.289297 0.355251 -0.888878 1.000000
-41.236900 181.856094 -796.146484 0.282047 0.490855 0.824325 2.000000
-41.226898 175.628403 -789.246216 -0.619033 0.785217 0.015233 2.000000
-41.220699 200.678101 -808.177917 0.217833 0.265007 0.939319 2.000000
-41.216900 195.163803 -804.130188 0.264868 0.934747 0.236840 2.000000
-41.208698 156.275497 -774.148682 -0.358674 0.852432 0.380411 2.000000
-41.202702 183.280899 -796.956177 0.570376 0.386278 0.724887 2.000000
-41.178200 37.173302 -750.696472 -0.965849 0.063724 0.251146 1.000000
-41.177101 51.245899 -749.813171 0.977172 0.105272 0.184536 1.000000
-41.173100 30.035801 -744.501221 -0.051039 0.183977 0.981605 1.000000
-41.166302 48.974400 -748.786377 0.972367 0.055178 0.226845 1.000000
-41.160198 17.458799 -742.501587 -0.012956 0.215540 0.976409 1.000000
-41.157700 43.333599 -747.288208 0.774054 0.228946 0.590275 1.000000
-41.153099 35.486198 -750.537476 -0.840913 0.051770 0.538688 1.000000
-41.140202 30.981701 -750.234985 0.922358 0.187862 -0.337586 1.000000
-41.129601 31.698299 -744.786499 -0.035301 0.239806 0.970179 1.000000
-41.127899 178.543900 -792.382019 -0.505982 0.828949 0.238381 2.000000
-41.126202 40.103401 -746.447571 0.267771 0.175342 0.947393 1.000000
-41.098499 38.710999 -750.621521 -0.992495 0.089813 0.082992 1.000000
-41.096699 20.021999 -749.224426 -0.716799 0.136748 0.683739 1.000000
-41.090801 33.563599 -745.220886 0.351232 0.538988 0.765590 1.000000
-41.081699 14.168400 -748.691772 -0.582000 0.081911 0.809053 1.000000
-41.070599 12.219600 -741.922913 -0.199660 0.173561 0.964372 1.000000
-41.042301 28.450701 -744.290894 -0.130172 0.296578 0.946096 1.000000
-41.032799 22.081900 -749.257874 -0.824221 0.040444 0.564822 1.000000
-41.015301 47.985199 -750.576904 0.941220 0.047771 -0.334398 1.000000
-40.991600 217.028595 -823.525513 -0.166387 0.968657 -0.184445 2.000000
-40.984402 45.536999 -750.477722 0.926370 0.021964 -0.375974 1.000000
-40.970699 37.017799 -745.495728 -0.788122 0.135575 -0.600403 1.000000
-40.970100 202.302505 -809.486084 0.225568 0.356544 -0.906640 2.000000
-40.967300 160.035400 -776.215881 -0.427649 0.383135 0.818733 2.000000
-40.965900 171.398697 -784.253113 -0.633647 0.475656 0.610117 2.000000
-40.951401 206.689804 -813.180420 0.361217 0.762928 0.536156 2.000000
-40.948799 193.544403 -803.205017 0.192513 0.427644 0.883210 2.000000
-40.936100 165.758606 -779.819702 -0.627352 0.732175 0.265235 2.000000
-40.926601 42.594898 -750.339783 0.947489 0.055281 -0.314973 1.000000
-40.912399 189.826706 -800.689209 0.410600 0.465780 0.783873 2.000000
-40.881100 46.313900 -748.820984 0.981605 0.051039 0.183977 1.000000
-40.865200 168.135406 -781.700317 -0.570580 0.473531 0.670975 2.000000
-40.860699 179.909500 -793.436829 0.273733 0.231620 -0.933500 2.000000
-40.849499 212.570099 -819.208130 0.074119 0.247481 0.966054 2.000000
-40.847801 29.187799 -749.781982 -0.702864 0.012526 0.711214 1.000000
-40.845798 19.749599 -743.015991 -0.105317 0.227129 0.968153 1.000000
-40.844299 24.709900 -743.727173 -0.175069 0.063120 0.982531 1.000000
-40.835400 35.496498 -745.818176 -0.547354 0.240340 -0.801649 1.000000
-40.821499 14.461300 -742.245728 0.288538 0.046620 -0.956333 1.000000
-40.819599 207.911606 -814.416504 0.286828 0.716270 0.636150 2.000000
-40.792301 163.917007 -777.841309 -0.396603 0.729026 0.557877 2.000000
-40.785400 161.565704 -776.682983 0.548075 0.741128 -0.387742 2.000000
-40.779400 218.140106 -824.761230 -0.732505 0.321785 0.599910 2.000000
-40.776100 12.646100 -748.296875 0.918601 0.155671 -0.363233 1.000000
-40.763901 40.288300 -750.018188 0.919947 0.049117 -0.388953 1.000000
-40.744701 17.394100 -748.635010 -0.720800 0.004150 0.693130 1.000000
-40.731400 44.561100 -748.738770 -0.999544 0.007089 -0.029369 1.000000
-40.726002 175.523605 -787.536621 -0.610041 0.452935 0.650154 2.000000
-40.723202 204.236298 -811.169312 0.230531 0.558535 0.796802 2.000000
-40.701599 33.017300 -749.735779 -0.881562 0.094202 0.462574 1.000000
-40.674000 -2.012300 -747.168213 -0.178445 0.104606 -0.978374 1.000000
-40.668098 26.416300 -744.081421 0.447263 0.324854 0.833322 1.000000
-40.653099 41.256901 -747.639282 0.973997 0.137342 0.180183 1.000000
-40.626999 178.204803 -790.529297 -0.955293 0.273877 -0.111385 2.000000
-40.613098 27.274900 -749.389404 -0.224588 0.568439 -0.791478 1.000000
-40.597000 177.271896 -789.200623 0.388419 0.088587 -0.917215 2.000000
-40.571999 43.003899 -748.716614 0.993794 0.099268 -0.050192 1.000000
-40.564201 187.030304 -798.853516 0.514730 0.807512 0.288060 2.000000
-40.562698 170.278305 -782.934082 -0.680546 0.424301 0.597349 2.000000
-40.556400 196.492294 -805.194275 0.175309 0.891036 0.418714 2.000000
-40.551800 181.597794 -794.606628 -0.671562 0.483993 0.561030 2.000000
-40.504902 25.312700 -749.114929 -0.535995 0.417251 -0.733901 1.000000
-40.501499 15.747700 -748.239624 -0.704992 0.044151 0.707840 1.000000
-40.498501 11.046500 -747.842285 0.805352 0.046544 -0.590967 1.000000
-40.497601 209.189499 -815.796387 0.188412 0.605064 0.773562 2.000000
-40.461498 38.123699 -749.313477 0.847749 0.075010 -0.525067 1.000000
-40.459099 173.445999 -785.177002 -0.777097 0.612394 0.145238 2.000000
-40.451801 23.520901 -748.906616 0.854768 0.048488 -0.516740 1.000000
-40.419498 184.724197 -797.249390 -0.138130 0.428629 0.892859 2.000000
-40.417198 36.242802 -749.267578 -0.999080 0.038149 -0.019590 1.000000
-40.402699 9.895000 -741.223083 -0.180873 0.102125 -0.978190 1.000000
-40.388901 37.995098 -746.851196 -0.898949 0.149587 -0.411721 1.000000
-40.372501 9.261900 -747.564270 0.912990 0.006475 -0.407932 1.000000
-40.356400 213.613907 -820.347412 0.069410 0.837165 0.542528 2.000000
-40.342800 179.515503 -791.362488 -0.912354 0.332161 0.239330 2.000000
-40.336899 219.688995 -826.023926 -0.209971 0.723234 -0.657910 2.000000
-40.334400 34.399899 -749.113220 -0.991614 0.062760 0.112969 1.000000
-40.322601 39.596199 -747.781616 -0.818255 0.093803 -0.567150 1.000000
-40.303101 30.806499 -748.852295 -0.885233 0.020088 0.464714 1.000000
-40.298901 188.550995 -800.004822 0.066914 0.339818 0.938108 2.000000
-40.295898 210.813095 -817.500183 0.130314 0.711484 0.690514 2.000000
-40.242100 0.955300 -739.288818 -0.180918 0.099689 -0.978433 1.000000
-40.237099 16.115801 -742.517700 0.477722 0.399991 0.782169 1.000000
-40.234600 34.090599 -746.389404 0.862632 0.045547 0.503777 1.000000
-40.231701 197.960098 -806.636414 0.189510 0.487952 0.852050 2.000000
-40.206902 6.374500 -740.661987 -0.180918 0.099689 -0.978433 1.000000
-40.197102 21.131399 -748.341125 -0.795871 0.055328 0.602933 1.000000
-40.193802 3.087700 -740.052917 -0.180918 0.099689 -0.978433 1.000000
-40.158901 182.917297 -795.371826 -0.731782 0.564798 0.381443 2.000000
-40.136299 214.702698 -821.491821 0.130760 0.824228 0.550954 2.000000
-40.131802 19.307501 -748.130615 0.810552 0.006857 -0.585627 1.000000
-40.111401 32.587601 -745.970886 0.876528 0.347877 0.332686 1.000000
-40.102001 36.771999 -747.778625 0.958045 0.129749 -0.255566 1.000000
-40.098598 205.184906 -812.232727 0.315040 0.699550 0.641389 2.000000
-40.084702 32.397701 -748.172913 -0.983184 0.043462 0.177372 1.000000
-40.078400 28.463100 -748.538818 0.884756 0.017348 -0.465731 1.000000
-40.073101 30.766500 -745.503174 0.814464 0.226326 0.534252 1.000000
-40.064701 199.671997 -807.792725 -0.162341 0.149756 0.975304 2.000000
-40.056198 191.080505 -801.688599 0.330521 0.333539 0.882897 2.000000
-40.037399 181.444000 -792.849426 -0.213626 0.564034 -0.797640 2.000000
-40.017101 192.356598 -802.749878 0.475004 0.356653 0.804468 2.000000
-40.014301 167.603104 -780.527527 -0.602446 0.419886 0.678789 2.000000
-39.991001 185.049805 -798.724426 -0.263801 0.586050 0.766130 2.000000
-39.976101 35.152699 -747.803284 0.995794 0.091111 -0.009647 1.000000
-39.962799 172.480392 -783.631104 -0.616031 0.599154 0.511390 2.000000
-39.955898 169.421997 -781.784973 0.641936 0.605062 -0.470976 2.000000
-39.954399 203.084198 -810.452026 0.197983 0.600087 0.775048 2.000000
-39.875999 215.950806 -822.766724 0.020765 0.593874 0.804290 2.000000
-39.869099 13.408800 -747.211121 0.844515 0.009489 -0.535447 1.000000
-39.858601 174.888702 -785.594971 -0.813838 0.521292 0.256756 2.000000
-39.853699 26.643499 -748.173523 0.916251 0.019550 -0.400127 1.000000
-39.830898 27.435699 -744.889526 0.488544 0.423187 0.763044 1.000000
-39.816502 13.152500 -741.960083 0.390630 0.604900 0.693905 1.000000
-39.811600 20.974899 -743.236511 -0.001187 0.243373 -0.969932 1.000000
-39.809200 200.831604 -808.802917 0.146448 0.028381 -0.988811 2.000000
-39.801601 29.242399 -745.051514 -0.244470 0.166988 -0.955170 1.000000
-39.799702 194.383698 -804.094116 0.753866 0.355047 0.552835 2.000000
-39.778599 176.981705 -787.898804 -0.503695 0.527122 0.684422 2.000000
-39.766201 22.608200 -747.832886 -0.864687 0.031418 0.501327 1.000000
-39.754700 30.887899 -747.336304 0.970708 0.052769 -0.234394 1.000000
-39.747700 220.769897 -826.981689 0.376196 0.714608 0.589757 2.000000
-39.697601 24.321600 -747.797180 -0.875103 0.012061 0.483786 1.000000
-39.651100 16.928900 -747.363403 -0.743967 0.117312 0.657839 1.000000
-39.647800 178.494095 -789.260681 -0.563489 0.367493 0.739885 2.000000
-39.646099 182.822800 -793.704773 -0.630718 0.627372 0.456727 2.000000
-39.633499 189.429596 -801.456421 0.616214 0.261376 0.742942 2.000000
-39.607101 217.343002 -824.131287 0.227973 0.877621 0.421675 2.000000
-39.605900 206.885193 -813.967712 0.081827 0.366210 0.926927 2.000000
-39.593498 29.273899 -747.260071 0.945627 0.060800 -0.319521 1.000000
-39.592201 23.657301 -743.885620 -0.178491 0.102171 -0.978623 1.000000
-39.588699 186.982407 -800.057495 0.710446 0.244167 0.660037 2.000000
-39.579399 25.488701 -744.856384 0.906415 0.200944 0.371529 1.000000
-39.559101 14.933600 -747.103821 -0.702318 0.038308 0.710831 1.000000
-39.509201 171.442093 -782.520630 -0.520036 0.346154 0.780859 2.000000
-39.506302 180.965607 -791.382202 -0.658132 0.752747 0.015305 2.000000
-39.489300 27.170601 -746.400574 0.998125 0.057847 0.019984 1.000000
-39.479000 222.574097 -828.472412 0.223141 0.747443 0.625730 2.000000
-39.453098 7.678600 -746.362305 0.832401 0.026228 -0.553553 1.000000
-39.443600 18.959000 -743.366516 -0.090917 0.009627 -0.995812 1.000000
-39.420200 185.894104 -797.460388 -0.051559 0.530921 -0.845851 2.000000
-39.418499 208.096100 -815.157104 0.253184 0.759551 0.599149 2.000000
-39.400902 11.493900 -746.553223 -0.701681 0.055962 0.710290 1.000000
-39.386200 184.489395 -795.232910 -0.715679 0.539665 0.443356 2.000000
-39.379902 212.200195 -818.887024 0.152693 0.871079 0.466805 2.000000
-39.379299 25.446301 -746.773804 0.983419 0.063024 -0.170047 1.000000
-39.365501 218.735703 -825.299011 0.142375 0.444383 0.884451 2.000000
-39.365501 18.482700 -747.052979 0.751583 0.023793 -0.659209 1.000000
-39.359699 9.484400 -746.187927 0.852031 0.048648 -0.521226 1.000000
-39.325802 176.271103 -786.017029 -0.922337 0.230227 0.310306 2.000000
-39.322102 20.383900 -747.051575 0.760429 0.082877 -0.644111 1.000000
-39.318501 173.894196 -783.818115 -0.668389 0.412975 0.618633 2.000000
-39.295700 179.824997 -790.197815 -0.569258 0.400956 0.717760 2.000000
-39.260399 -2.529300 -746.701416 -0.178445 0.104606 -0.978374 1.000000
-39.212299 23.732800 -746.132080 0.961555 0.183342 -0.204446 1.000000
-39.210899 196.936600 -805.953674 0.332891 0.196901 0.922179 2.000000
-39.194401 209.865402 -816.807129 0.108060 0.269499 0.956918 2.000000
-39.178101 204.105499 -811.629272 0.174041 0.254990 -0.951152 2.000000
-39.175800 11.722200 -742.300415 -0.040048 0.011295 -0.999134 1.000000
-39.167999 22.165600 -744.119812 -0.178491 0.102171 -0.978623 1.000000
-39.159500 5.690700 -745.854919 0.799341 0.322597 -0.506938 1.000000
-39.076599 187.201996 -798.423218 0.154340 0.340661 -0.927432 2.000000
-39.071400 17.332399 -743.430176 0.694969 0.146230 0.704014 1.000000
-39.069801 21.916500 -746.443787 0.963611 0.040926 -0.264156 1.000000
-39.028599 192.888901 -803.919189 0.677968 0.326790 0.658458 2.000000
-39.027100 195.390701 -805.260498 0.566221 0.436704 0.699059 2.000000
-39.015202 191.059906 -803.114075 0.369796 0.469049 0.802025 2.000000
-39.006901 9.195300 -741.553772 -0.180918 0.099689 -0.978433 1.000000
-38.968300 20.319500 -744.662720 0.939905 0.039969 -0.339088 1.000000
-38.939899 224.367203 -830.027710 0.573826 0.594138 0.563670 2.000000
-38.921902 198.398499 -807.344971 -0.182644 0.349713 0.918881 2.000000
-38.920300 182.286499 -792.143982 -0.383086 0.073929 0.920750 2.000000
-38.896801 175.442795 -784.349915 -0.612407 0.055415 0.788598 2.000000
-38.893299 202.034302 -810.039429 0.279509 0.900640 0.332749 2.000000
-38.890900 13.083300 -745.891174 -0.928221 0.062235 0.366786 1.000000
-38.872700 15.406900 -742.990479 -0.178491 0.102171 -0.978623 1.000000
-38.872601 16.141500 -746.152588 -0.873208 0.079892 0.480755 1.000000
-38.836300 178.135300 -787.500488 0.832085 0.020630 -0.554265 2.000000
-38.820499 213.210098 -820.046875 0.110782 0.760701 0.639579 2.000000
-38.807301 2.864400 -745.310791 -0.178491 0.102171 -0.978623 1.000000
-38.805500 18.513901 -744.725586 0.743648 0.172551 -0.645920 1.000000
-38.796101 5.656500 -740.997925 -0.180918 0.099689 -0.978433 1.000000
-38.790100 211.107498 -817.935730 0.141839 0.792807 0.592739 2.000000
-38.775600 2.338400 -740.393616 -0.178445 0.104606 -0.978374 1.000000
-38.775398 205.569595 -813.147888 0.304385 0.620043 0.723116 2.000000
-38.760700 188.571396 -799.601624 -0.753684 0.458122 0.471258 2.000000
-38.727299 215.169296 -822.063416 0.026659 0.745050 0.666476 2.000000
-38.718399 185.768707 -795.885498 -0.676431 0.542152 0.498511 2.000000
-38.674301 219.657303 -826.324707 0.258827 0.826077 0.500606 2.000000
-38.671101 184.182404 -793.759827 -0.673853 0.617561 0.405636 2.000000
-38.627102 10.689500 -745.425720 -0.175682 0.101969 -0.979152 1.000000
-38.616501 -2.521500 -744.893677 0.316298 0.331289 -0.888934 1.000000
-38.604599 179.401093 -788.551880 -0.662761 0.662761 0.348563 2.000000
-38.596600 13.986800 -743.559570 0.965762 0.087336 -0.244288 1.000000
-38.566898 221.347794 -827.796570 0.293289 0.633056 0.716395 2.000000
-38.551102 14.937300 -744.850586 -0.943586 0.037129 -0.329039 1.000000
-38.493401 187.131393 -796.900818 0.093773 0.373734 -0.922783 2.000000
-38.491100 216.504700 -823.356812 0.037967 0.606072 0.794503 2.000000
-38.488899 7.171300 -744.919312 -0.178062 0.101925 -0.978726 1.000000
-38.461102 7.713500 -741.807373 -0.180918 0.099689 -0.978433 1.000000
-38.437401 10.351100 -742.542175 0.867479 0.074275 0.491898 1.000000
-38.435299 12.391500 -743.621094 0.153902 0.045129 -0.987055 1.000000
-38.434700 200.122696 -808.537415 0.045956 0.368960 0.928308 2.000000
-38.413502 225.463394 -831.130005 -0.372991 0.492477 -0.786349 2.000000
-38.407001 -0.834200 -744.757324 -0.782802 0.015240 0.622085 1.000000
-38.406601 190.556793 -801.395020 -0.476671 0.162802 0.863875 2.000000
-38.385300 177.807999 -785.703613 -0.741946 0.667031 0.067712 2.000000
-38.319599 181.490707 -790.507629 -0.745462 0.633875 0.206126 2.000000
-38.313000 1.062700 -744.578186 -0.180873 0.102125 -0.978190 1.000000
-38.253700 194.278793 -804.351379 0.270309 0.814052 0.514056 2.000000
-38.225601 4.167200 -741.257080 -0.180918 0.099689 -0.978433 1.000000
-38.172298 188.481506 -797.917603 -0.636641 0.626615 0.449492 2.000000
-38.165100 217.889404 -824.703918 0.038188 0.739720 0.671830 2.000000
-38.164398 203.056198 -811.025818 -0.091111 0.009647 0.995794 2.000000
-38.135300 4.124100 -744.293823 -0.184137 0.102573 -0.977534 1.000000
-38.134800 9.035000 -743.785400 -0.180873 0.102125 -0.978190 1.000000
-38.121700 222.862793 -829.217224 0.297416 0.628592 0.718621 2.000000
-38.111301 208.905807 -816.125000 0.136502 0.532800 0.835160 2.000000
-38.089699 207.014801 -814.442871 0.184176 0.268760 -0.945435 2.000000
-38.056599 5.711700 -744.143921 -0.175260 0.101725 -0.979253 1.000000
-38.053902 196.729507 -806.950684 -0.801705 0.412902 0.432182 2.000000
-37.972698 226.702698 -832.103271 -0.794303 0.364256 -0.486210 2.000000
-37.964600 6.749400 -743.000610 -0.180918 0.099689 -0.978433 1.000000
-37.935001 189.785202 -799.073486 -0.509248 0.653787 0.559669 2.000000
-37.923302 180.831894 -789.042786 -0.787982 0.505528 0.351462 2.000000
-37.910999 191.952805 -802.048096 -0.641401 0.286311 0.711780 2.000000
-37.903900 185.644302 -794.552979 0.096039 0.435656 -0.894975 2.000000
-37.898800 214.156204 -821.170898 0.116788 0.634203 0.764296 2.000000
-37.889702 183.470001 -792.122925 -0.535510 0.518723 0.666450 2.000000
-37.855301 227.867798 -833.320129 -0.487391 0.074016 0.870041 2.000000
-37.850201 179.343903 -787.097778 -0.683284 0.596834 0.420610 2.000000
-37.842098 194.960693 -806.145386 -0.191914 0.609519 0.769192 2.000000
-37.796902 2.067700 -743.513916 -0.180918 0.099689 -0.978433 1.000000
-37.731602 2.110100 -741.560303 -0.183739 0.099885 -0.977887 1.000000
-37.707199 209.986404 -817.213623 0.317983 0.925685 -0.204923 2.000000
-37.659901 204.156403 -812.062683 0.192680 0.710605 0.676694 2.000000
-37.649399 211.703094 -818.801514 0.148918 0.838957 0.523426 2.000000
-37.643299 186.897400 -795.549194 -0.522088 0.397703 0.754491 2.000000
-37.551300 198.615005 -808.112183 0.471745 0.146604 -0.869462 2.000000
-37.533501 191.116501 -800.064819 -0.247743 0.667486 0.702201 2.000000
-37.482498 -0.925600 -740.969482 -0.180918 0.099689 -0.978433 1.000000
-37.470501 193.251602 -802.922424 -0.642724 0.202884 0.738745 2.000000
-37.453400 0.776700 -742.706970 -0.178062 0.101925 -0.978726 1.000000
-37.451099 223.953598 -830.301025 0.271527 0.601806 0.751067 2.000000
-37.443699 200.652893 -809.728027 0.496765 0.457156 0.737721 2.000000
-37.418400 220.213196 -827.055176 0.009654 0.605475 0.795806 2.000000
-37.334400 184.941193 -793.220215 -0.584647 0.658356 0.474083 2.000000
-37.332199 219.005798 -825.747681 0.023823 0.735722 0.676864 2.000000
-37.317501 215.585007 -822.683594 -0.079697 0.479581 0.873871 2.000000
-37.290901 -2.896800 -744.118896 -0.281633 0.006096 -0.959503 1.000000
-37.273899 182.669403 -790.390015 -0.795692 0.526770 0.298978 2.000000
-37.238499 212.934601 -819.921387 0.120505 0.742373 0.659061 2.000000
-37.235802 205.304901 -813.119995 0.307611 0.877374 -0.368225 2.000000
-37.185001 188.075607 -796.450989 -0.480576 0.817767 0.316707 2.000000
-37.151600 229.102203 -834.406494 0.230578 0.089459 -0.968933 2.000000
-37.147800 221.786102 -828.527283 0.133021 0.656137 0.742825 2.000000
-37.135300 180.688202 -787.709412 -0.268867 0.666600 0.695237 2.000000
-37.128399 207.893295 -815.283813 0.301342 0.867314 0.396181 2.000000
-37.072102 -0.706200 -742.930176 -0.183297 0.099645 -0.977994 1.000000
-37.057701 -2.041400 -742.112122 -0.180918 0.099689 -0.978433 1.000000
-37.033298 216.816406 -823.940979 0.187966 0.603632 0.774788 2.000000
-37.007000 197.195099 -808.380920 0.048831 0.542719 0.838494 2.000000
-36.956799 225.568604 -831.668030 0.267995 0.620036 0.737383 2.000000
-36.909401 193.066895 -801.494385 -0.526840 0.188696 0.828754 2.000000
-36.898701 189.323105 -797.490784 -0.543395 0.740397 0.395644 2.000000
-36.879902 194.615204 -803.737976 -0.706002 0.492365 0.509056 2.000000
-36.864601 181.895294 -788.691223 -0.489047 0.620131 0.613409 2.000000
-36.854301 195.561203 -805.101929 -0.597578 0.368370 0.712182 2.000000
-36.842300 202.276596 -810.894287 0.734179 0.661518 0.152891 2.000000
-36.708900 184.032303 -791.219482 0.917622 0.049135 -0.394405 2.000000
-36.684700 230.276794 -835.375916 0.140284 0.949921 0.279231 2.000000
-36.655800 210.747803 -818.088501 0.260030 0.594130 -0.761179 2.000000
-36.654800 186.555893 -794.407288 -0.542717 0.569768 0.617108 2.000000
-36.648899 190.615601 -798.525574 -0.455104 0.438792 0.774818 2.000000
-36.647400 198.718796 -809.422424 -0.232320 0.587816 0.774919 2.000000
-36.617901 196.875900 -806.265015 -0.669500 0.633132 0.388475 2.000000
-36.617298 226.997803 -832.972717 0.275723 0.500039 0.820937 2.000000
-36.604500 209.042801 -816.522522 0.173878 0.878157 0.445654 2.000000
-36.551498 206.522903 -814.283630 0.140722 0.474392 0.868993 2.000000
-36.539001 222.819397 -829.673706 0.132560 0.624074 0.770039 2.000000
-36.467602 217.884399 -824.900330 0.154694 0.794496 0.587236 2.000000
-36.441299 214.460007 -821.590576 0.245031 0.824476 0.510097 2.000000
-36.433399 200.767395 -810.913330 0.309905 0.529223 0.789862 2.000000
-36.428001 203.070694 -812.209412 -0.992817 0.039175 -0.113049 2.000000
-36.343201 192.166107 -800.041321 0.140785 0.285593 -0.947954 2.000000
-36.261200 194.306107 -802.298096 0.342634 0.011379 -0.939400 2.000000
-36.161701 185.337601 -792.165283 -0.639951 0.592921 0.488782 2.000000
-36.149200 231.541504 -836.667786 0.341291 0.658087 0.671150 2.000000
-36.134102 187.940399 -795.306885 -0.563625 0.597476 0.570395 2.000000
-36.112202 211.951599 -819.194214 -0.067019 0.342979 0.936949 2.000000
-36.072201 220.795898 -827.634888 0.155960 0.722261 0.673807 2.000000
-36.033600 198.709595 -807.812683 -0.470054 0.050706 0.881180 2.000000
-36.023499 228.069702 -834.074097 0.401196 0.592714 0.698378 2.000000
-36.011299 200.123901 -809.353088 -0.061739 0.647538 0.759528 2.000000
-36.001701 219.594604 -826.541870 0.101495 0.681045 0.725173 2.000000
-35.993301 232.518005 -837.856812 -0.069831 0.896851 0.436787 2.000000
-35.982700 -3.082000 -741.470093 -0.180873 0.102125 -0.978190 1.000000
-35.958900 223.841293 -830.681580 0.199788 0.720167 0.664412 2.000000
-35.951401 196.104599 -803.957825 0.160933 0.274532 -0.948015 2.000000
-35.931301 204.164795 -813.336487 0.149154 0.131896 0.979978 2.000000
-35.929600 183.366898 -789.811401 0.092141 0.732742 0.674240 2.000000
-35.861099 189.048599 -796.355103 -0.556637 0.733972 0.389153 2.000000
-35.848999 213.357697 -820.579773 -0.167828 0.942840 0.287900 2.000000
-35.740799 215.378403 -822.619995 0.088387 0.789683 0.607114 2.000000
-35.661999 201.702499 -812.333130 -0.334043 0.659939 0.672975 2.000000
-35.647202 193.814301 -800.968506 0.246307 0.283324 -0.926855 2.000000
-35.634102 207.945297 -815.695923 0.354900 0.681996 0.639474 2.000000
-35.619999 186.602905 -793.254272 -0.612809 0.669274 0.420164 2.000000
-35.575001 198.036499 -805.676086 -0.648661 0.742846 0.165583 2.000000
-35.563801 221.863998 -828.897522 0.149430 0.719980 0.677717 2.000000
-35.556400 225.713303 -832.477417 0.376831 0.646701 0.663156 2.000000
-35.522701 229.259995 -835.159180 0.525000 0.633039 0.568891 2.000000
-35.518600 190.332794 -797.436218 -0.537327 0.741084 0.402584 2.000000
-35.483101 209.859100 -817.438721 0.299604 0.910504 0.284989 2.000000
-35.468201 216.958298 -824.066284 0.106647 0.001077 -0.994296 2.000000
-35.376999 191.510605 -798.597717 0.252147 0.213567 -0.943828 2.000000
-35.370602 233.929703 -839.123291 -0.522552 0.660331 -0.539354 2.000000
-35.335701 201.847595 -810.829590 0.032486 0.679387 -0.733060 2.000000
-35.312500 205.561600 -814.314270 0.059331 0.007286 0.998212 2.000000
-35.258499 195.471405 -802.503113 0.158178 0.277150 -0.947717 2.000000
-35.221600 230.364105 -836.267822 0.473007 0.559920 0.680261 2.000000
-35.155499 218.471405 -825.687927 0.107658 0.759509 0.641527 2.000000
-35.154499 200.007797 -808.050415 -0.819066 0.493319 0.292859 2.000000
-35.131199 210.949997 -818.501221 0.192841 0.263960 -0.945059 2.000000
-35.128799 187.836899 -794.124390 -0.095190 0.739555 -0.666331 2.000000
-35.122501 199.245804 -806.534973 0.371197 0.099258 -0.923234 2.000000
-35.094799 197.386597 -804.321228 -0.431570 0.027886 0.901649 2.000000
-35.033600 235.070007 -840.829224 0.122718 0.895697 0.427396 2.000000
-34.978802 226.980804 -833.709595 0.461412 0.771194 0.438586 2.000000
-34.952000 192.861801 -799.624512 -0.499333 0.640559 0.583396 2.000000
-34.948502 206.390106 -815.718872 0.719684 0.333037 0.609214 2.000000
-34.940399 222.890106 -829.897583 0.261602 0.791071 0.552966 2.000000
-34.886299 214.342300 -821.608582 0.119776 0.773368 0.622539 2.000000
-34.867100 203.428604 -812.427673 -0.412428 0.457714 0.787656 2.000000
-34.827202 186.184402 -791.965027 -0.085734 0.640824 0.762886 2.000000
-34.818600 201.504593 -809.387878 -0.788725 0.519951 0.327969 2.000000
-34.762501 231.588303 -837.534729 0.174346 0.203186 -0.963493 2.000000
-34.754002 224.623795 -831.727173 0.084679 0.442829 0.892599 2.000000
-34.709599 188.942596 -795.112793 -0.591778 0.756778 0.277644 2.000000
-34.693298 220.008408 -827.283081 0.146408 0.668648 0.729023 2.000000
-34.679298 208.071198 -816.918884 0.882872 0.126940 0.452133 2.000000
-34.665600 212.586105 -819.929382 0.313909 0.897096 0.310934 2.000000
-34.655102 236.066101 -842.076172 -0.683435 0.434006 -0.586989 2.000000
-34.552601 190.057297 -796.239502 -0.612865 0.514942 0.599359 2.000000
-34.454700 232.679001 -838.695374 0.509847 0.661287 0.550231 2.000000
-34.451698 228.131897 -834.936218 0.031485 0.180746 0.983026 2.000000
-34.422901 194.790405 -801.117981 0.155026 0.279047 -0.947681 2.000000
-34.408100 216.002899 -823.363281 0.001380 0.732842 0.680398 2.000000
-34.344299 221.017197 -828.456177 0.333459 0.707585 0.623000 2.000000
-34.320499 196.671906 -802.758179 -0.494012 0.428362 0.756609 2.000000
-34.292400 236.685104 -843.580017 0.166442 0.820213 0.547309 2.000000
-34.270000 191.406006 -797.385498 -0.545668 0.552426 0.630137 2.000000
-34.256699 198.888504 -805.092529 -0.613188 0.734865 0.289783 2.000000
-34.253799 203.199005 -810.959717 0.172767 0.276155 -0.945457 2.000000
-34.171501 204.849503 -813.501282 0.183835 0.265540 -0.946411 2.000000
-34.157501 217.453705 -824.820129 -0.018097 0.627813 0.778154 2.000000
-34.145500 200.487305 -806.963501 -0.578167 0.467561 0.668663 2.000000
-34.140499 233.988098 -840.172180 0.397236 0.568658 0.720300 2.000000
-34.114498 209.059601 -818.146973 0.827409 0.248069 0.503841 2.000000
-34.018600 225.532501 -832.774414 0.322809 0.803046 0.500910 2.000000
-34.005199 237.477905 -845.017212 0.383824 0.841281 0.380691 2.000000
-33.999901 229.386505 -836.187317 0.353072 0.567845 0.743567 2.000000
-33.997799 201.597794 -808.062927 -0.602782 0.737806 0.303802 2.000000
-33.924400 194.106293 -799.740112 -0.538450 0.599215 0.592464 2.000000
-33.886398 192.737793 -798.403198 -0.618718 0.744666 0.250321 2.000000
-33.864498 210.299805 -819.156128 0.868719 0.200474 0.452922 2.000000
-33.817101 223.565994 -831.033325 0.428566 0.855597 -0.290319 2.000000
-33.817001 198.170593 -803.769897 -0.175767 0.725995 -0.664859 2.000000
-33.801102 206.348999 -814.658630 -0.598411 0.441724 0.668420 2.000000
-33.726200 204.588501 -811.576172 -0.756712 0.609443 0.236570 2.000000
-33.721901 213.329803 -820.998474 0.326917 0.351246 0.877355 2.000000
-33.687302 222.009201 -829.455322 0.094941 0.638298 0.763912 2.000000
-33.672298 238.165207 -846.388306 0.417511 0.552830 0.721155 2.000000
-33.661598 207.452896 -815.929626 -0.307198 0.616005 0.725374 2.000000
-33.656200 219.116501 -826.504578 0.224320 0.292039 -0.929728 2.000000
-33.643002 234.960999 -841.496094 0.398673 0.653427 0.643501 2.000000
-33.613499 203.054092 -809.512695 0.332892 0.039844 -0.942123 2.000000
-33.606400 230.537796 -837.352478 0.361612 0.613595 0.701953 2.000000
-33.536499 196.068695 -801.330383 -0.709037 0.556270 0.433393 2.000000
-33.514500 215.035706 -822.558228 0.213502 0.498172 0.840382 2.000000
-33.509899 226.866196 -834.165222 0.408741 0.822253 0.396018 2.000000
-33.401798 190.058197 -795.194214 -0.178873 0.646693 0.741480 2.000000
-33.319500 235.725693 -842.797729 0.397236 0.720300 0.568658 2.000000
-33.266998 211.774994 -820.044617 0.211117 0.283820 -0.935348 2.000000
-33.264400 238.992905 -848.286377 0.241197 0.224658 -0.944115 2.000000
-33.218498 205.808899 -812.474487 -0.673248 0.392039 0.626931 2.000000
-33.216599 231.722000 -838.659302 0.424132 0.640356 0.640356 2.000000
-33.183701 208.630096 -816.817017 -0.445866 0.199973 0.872476 2.000000
-33.150299 220.229904 -827.702515 -0.070769 0.732241 0.677359 2.000000
-33.134602 200.548904 -805.645386 -0.630745 0.773771 -0.058641 2.000000
-33.128201 197.544495 -802.210327 -0.777431 0.600256 0.187866 2.000000
-33.073898 191.442902 -796.335571 -0.238780 0.575880 0.781886 2.000000
-33.032200 224.449005 -832.139587 0.158280 0.598449 0.785370 2.000000
-33.021198 216.634506 -824.032227 0.216789 0.653486 0.725230 2.000000
-33.019699 228.292999 -835.601318 0.343820 0.630609 0.695788 2.000000
-32.948601 232.978806 -840.037415 0.453791 0.737617 0.499995 2.000000
-32.943901 218.097702 -825.524170 0.149599 0.735906 0.660351 2.000000
-32.925900 195.444504 -799.829285 -0.744655 0.538443 0.394422 2.000000
-32.923500 193.938705 -798.541504 -0.592335 0.602461 0.534958 2.000000
-32.882198 199.421097 -804.146729 0.163687 0.271909 -0.948300 2.000000
-32.870499 204.488693 -810.221802 -0.409102 0.847760 -0.337548 2.000000
-32.868099 236.637894 -844.187317 0.407853 0.775083 0.482599 2.000000
-32.821301 239.640793 -850.146484 -0.331516 0.477446 0.813721 2.000000
-32.806198 202.630798 -807.903076 0.172452 0.272936 -0.946449 2.000000
