ply
format ascii 1.0
element vertex 678
property float x
property float y
property float z
property float nx
property float ny
property float nz
property float label
element face 0
property list uchar int vertex_indices
end_header
-39.345001 28.309200 -746.406311 -0.100618 0.975124 -0.197509 2.000000
-39.304001 28.266800 -746.567017 0.008755 0.944309 -0.328945 2.000000
-39.263901 28.227800 -746.728271 0.020941 0.993060 -0.115728 2.000000
-39.230202 28.212700 -746.893677 0.038133 0.965634 -0.257092 2.000000
-39.137699 28.088800 -747.208801 0.025331 0.971025 -0.237630 2.000000
-39.099499 28.056801 -747.371521 0.008762 0.945084 -0.326711 2.000000
-39.047298 27.972900 -747.525574 0.061197 0.898919 -0.433820 2.000000
-38.975700 27.926100 -747.852783 -0.389447 0.576776 0.718095 2.000000
-39.975201 28.762899 -742.881470 -0.085610 0.995899 -0.029259 2.000000
-39.946602 28.767900 -743.051880 -0.093980 0.993015 -0.071334 2.000000
-39.900902 28.736099 -743.257080 -0.078646 0.996539 -0.026933 2.000000
-39.871700 28.738300 -743.425720 -0.061313 0.997144 -0.044102 2.000000
-39.841499 28.736500 -743.593506 -0.136952 0.968906 -0.206069 2.000000
-39.798401 28.685600 -743.751770 -0.108604 0.989117 -0.099262 2.000000
-39.767502 28.681101 -743.919128 -0.072327 0.940253 -0.332705 2.000000
-39.725498 28.634501 -744.078186 -0.131520 0.939626 -0.315920 2.000000
-39.682301 28.583500 -744.236572 -0.148984 0.986576 0.066867 2.000000
-39.062500 28.151699 -747.016785 -0.082860 0.943027 -0.322234 2.000000
-38.887699 27.887400 -747.560791 0.068409 0.921509 -0.382285 2.000000
-40.122799 28.630199 -740.919678 -0.123573 0.647641 0.751859 2.000000
-40.118401 28.710699 -741.080017 -0.061502 0.892460 0.446914 2.000000
-40.109200 28.775999 -741.242004 -0.108153 0.968288 0.225213 2.000000
-40.084801 28.793900 -741.410217 -0.077179 0.996990 -0.007401 2.000000
-40.055698 28.797100 -741.580322 -0.088532 0.994023 0.063877 2.000000
-40.020699 28.782101 -741.752930 -0.039407 0.991934 -0.120473 2.000000
-39.987202 28.771900 -741.924927 -0.125993 0.976760 -0.173397 2.000000
-39.960499 28.782801 -742.094116 -0.032560 0.991385 0.126870 2.000000
-39.940102 28.813000 -742.260803 -0.119291 0.984452 0.128931 2.000000
-39.921101 28.847900 -742.426819 0.036424 0.994496 -0.098235 2.000000
-39.882099 28.820700 -742.601318 -0.029086 0.996479 -0.078641 2.000000
-39.839100 28.781000 -742.777771 -0.111840 0.993276 -0.029898 2.000000
-39.806702 28.774200 -742.949829 -0.072515 0.997340 -0.007357 2.000000
-39.773499 28.764999 -743.122070 -0.064364 0.977602 -0.200378 2.000000
-39.726601 28.729200 -743.327515 -0.096173 0.995233 -0.016209 2.000000
-39.695702 28.725100 -743.494873 -0.105696 0.993546 -0.041166 2.000000
-39.663101 28.713900 -743.660828 -0.105691 0.986847 -0.122317 2.000000
-39.623798 28.677601 -743.822021 -0.096637 0.979828 -0.174926 2.000000
-39.588600 28.656700 -743.986084 -0.067596 0.957819 -0.279311 2.000000
-39.552700 28.633400 -744.149719 -0.110181 0.993810 0.014182 2.000000
-39.516602 28.609100 -744.313171 -0.232311 0.971813 0.040137 2.000000
-39.493500 28.634199 -744.486084 -0.184452 0.974960 0.124223 2.000000
-39.472698 28.667900 -744.660522 -0.136727 0.989259 -0.051703 2.000000
-39.441700 28.663200 -744.827576 -0.094028 0.995400 -0.018373 2.000000
-39.409302 28.653000 -744.993713 -0.037148 0.991748 -0.122702 2.000000
-39.376301 28.640400 -745.159302 -0.102383 0.994730 0.005389 2.000000
-39.339100 28.611900 -745.322021 -0.132802 0.965717 -0.223056 2.000000
-39.304401 28.593100 -745.486511 -0.121453 0.975383 -0.184058 2.000000
-39.262402 28.546700 -745.645996 -0.077374 0.942914 -0.323922 2.000000
-39.224300 28.514999 -745.808228 -0.088792 0.971709 -0.218853 2.000000
-39.183601 28.473600 -745.968689 -0.131264 0.963034 -0.235235 2.000000
-39.145500 28.441799 -746.130981 -0.135151 0.966652 -0.217529 2.000000
-39.105701 28.404100 -746.292175 -0.079687 0.977083 -0.197378 2.000000
-39.062000 28.351101 -746.450928 0.035379 0.923773 -0.381302 2.000000
-39.013100 28.279400 -746.606323 -0.044293 0.952933 -0.299927 2.000000
-38.969601 28.227600 -746.765381 -0.010925 0.962603 -0.270694 2.000000
-38.931301 28.195400 -746.927917 -0.097117 0.969913 -0.223244 2.000000
-38.896400 28.175699 -747.092590 -0.066867 0.940078 -0.334337 2.000000
-38.839001 28.072399 -747.243103 -0.042712 0.938368 -0.342990 2.000000
-38.797199 28.027201 -747.403625 0.039152 0.892387 -0.449569 2.000000
-39.981800 28.686199 -740.745422 0.126624 0.889211 0.439626 2.000000
-39.964802 28.726999 -740.910583 -0.121106 0.948888 0.291454 2.000000
-39.945000 28.759199 -741.077026 -0.102288 0.944501 0.312177 2.000000
-39.934399 28.820200 -741.239624 -0.064773 0.992044 0.107954 2.000000
-39.902199 28.813801 -741.410828 -0.047436 0.998268 -0.034787 2.000000
-39.863098 28.785801 -741.585022 0.005093 0.999198 -0.039723 2.000000
-39.830898 28.779301 -741.756409 -0.005408 0.994000 -0.109243 2.000000
-39.803101 28.786699 -741.926086 -0.009368 0.998195 -0.059330 2.000000
-39.777802 28.801701 -742.094788 -0.052954 0.992599 0.109287 2.000000
-39.746300 28.797600 -742.266113 0.038926 0.998399 0.041030 2.000000
-39.716599 28.799299 -742.436584 0.009666 0.995578 -0.093436 2.000000
-39.685501 28.796400 -742.607788 -0.072503 0.996649 -0.037875 2.000000
-39.658001 28.804800 -742.777588 -0.046577 0.998824 -0.013456 2.000000
-39.627499 28.803600 -742.948730 -0.013856 0.996530 -0.082067 2.000000
-39.581402 28.754700 -743.126587 -0.007692 0.992232 -0.124166 2.000000
-39.545399 28.757299 -743.334778 -0.064512 0.996103 0.060138 2.000000
-39.519001 28.769899 -743.505615 -0.075285 0.996158 -0.044734 2.000000
-39.487801 28.764299 -743.672485 -0.098148 0.987396 -0.124164 2.000000
-39.449200 28.730400 -743.834106 -0.105674 0.956288 -0.272666 2.000000
-39.404701 28.673901 -743.991272 -0.102203 0.943716 -0.314572 2.000000
-39.365398 28.637800 -744.152527 -0.153567 0.987214 -0.042722 2.000000
-39.333302 28.628599 -744.318909 -0.061152 0.998124 0.003109 2.000000
-39.312599 28.662701 -744.493530 -0.060397 0.984109 0.166979 2.000000
-39.287998 28.682100 -744.665222 -0.061405 0.998099 -0.005204 2.000000
-39.258801 28.684000 -744.833618 -0.079424 0.991076 -0.107050 2.000000
-39.228100 28.680000 -745.000793 -0.085418 0.988741 -0.122861 2.000000
-39.191002 28.652000 -745.163574 -0.067199 0.997324 -0.028800 2.000000
-39.151699 28.615700 -745.324829 -0.100923 0.981259 -0.164151 2.000000
-39.118301 28.601700 -745.490173 -0.083005 0.982827 -0.164807 2.000000
-39.082001 28.576799 -745.653625 -0.042075 0.947332 -0.317477 2.000000
-39.041599 28.536301 -745.814087 -0.008262 0.973677 -0.227781 2.000000
-39.001801 28.498100 -745.975220 -0.066908 0.976857 -0.203157 2.000000
-38.951099 28.419001 -746.129089 -0.006092 0.958842 -0.283876 2.000000
-38.909401 28.374001 -746.289124 0.071508 0.947803 -0.310734 2.000000
-38.859402 28.297501 -746.443604 0.101271 0.930345 -0.352424 2.000000
-38.819401 28.258900 -746.604919 0.019430 0.986362 -0.163441 2.000000
-38.782001 28.230200 -746.768005 -0.020149 0.975456 -0.219270 2.000000
-38.744801 28.202000 -746.931213 0.017779 0.975500 -0.219280 2.000000
-38.704800 28.163401 -747.092712 0.006370 0.928721 -0.370724 2.000000
-38.658699 28.101999 -747.250305 0.014166 0.925966 -0.377341 2.000000
-38.602001 28.001101 -747.401428 0.107829 0.849690 -0.516140 2.000000
-38.538898 27.876400 -747.548584 0.023331 0.961494 -0.273835 2.000000
-38.493698 27.828600 -747.723999 -0.219658 0.624702 -0.749331 2.000000
-39.770500 28.610399 -740.780029 0.293920 0.835105 -0.464984 2.000000
-39.774300 28.716299 -740.937195 0.003962 0.886083 0.463510 2.000000
-39.760399 28.767000 -741.101196 -0.053997 0.928478 0.367440 2.000000
-39.742001 28.803600 -741.266907 -0.023481 0.999494 0.021440 2.000000
-39.714802 28.812700 -741.436218 -0.008990 0.999847 -0.014983 2.000000
-39.684502 28.812300 -741.606689 -0.037944 0.996311 -0.076973 2.000000
-39.645401 28.784500 -741.780884 -0.024146 0.998384 -0.051441 2.000000
-39.613800 28.779800 -741.952087 -0.055655 0.991572 -0.116990 2.000000
-39.585800 28.786800 -742.121826 -0.103203 0.982251 0.156626 2.000000
-39.559299 28.798201 -742.291016 -0.034890 0.991552 -0.124929 2.000000
-39.529598 28.799601 -742.461609 -0.041030 0.998399 0.038926 2.000000
-39.500599 28.803301 -742.631897 -0.032055 0.993718 0.107220 2.000000
-39.466000 28.789600 -742.804688 0.027620 0.999430 -0.019436 2.000000
-39.429600 28.770700 -742.978271 0.022217 0.997668 -0.064536 2.000000
-39.396599 28.761801 -743.150574 -0.045276 0.994962 -0.089447 2.000000
-39.371700 28.778500 -743.319275 -0.103879 0.991987 0.071916 2.000000
-39.327900 28.755400 -743.528381 -0.068544 0.988662 -0.133603 2.000000
-39.295399 28.745199 -743.694580 -0.101373 0.992090 -0.074037 2.000000
-39.258801 28.718901 -743.857605 -0.101544 0.962738 -0.250646 2.000000
-39.216400 28.671000 -744.016479 -0.062698 0.953260 -0.295575 2.000000
-39.176601 28.632500 -744.177185 -0.042886 0.986380 0.158794 2.000000
-39.148800 28.639999 -744.346802 -0.121522 0.987510 0.100285 2.000000
-39.123501 28.656799 -744.518188 -0.084876 0.989447 0.117431 2.000000
-39.100300 28.681200 -744.690918 -0.080955 0.996292 -0.029144 2.000000
-39.071400 28.684500 -744.859497 -0.085596 0.982545 -0.165164 2.000000
-39.042198 28.686199 -745.027771 -0.108375 0.993250 -0.041339 2.000000
-39.010601 28.679001 -745.194397 -0.072516 0.997353 -0.005255 2.000000
-38.967701 28.629000 -745.353088 -0.017865 0.973058 -0.229866 2.000000
-38.925701 28.582701 -745.512512 0.020792 0.962552 -0.270297 2.000000
-38.882999 28.533800 -745.671570 0.055685 0.944057 -0.325046 2.000000
-38.844799 28.501600 -745.833679 0.040210 0.971123 -0.235165 2.000000
-38.809898 28.482300 -745.998230 0.059345 0.987924 -0.143127 2.000000
-38.767899 28.436001 -746.157898 0.105615 0.939844 -0.324868 2.000000
-38.717499 28.357901 -746.312012 0.157816 0.923153 -0.350547 2.000000
-38.671501 28.296900 -746.469299 0.064106 0.964101 -0.257680 2.000000
-38.630299 28.254000 -746.629883 0.017164 0.985209 -0.170495 2.000000
-38.593300 28.226601 -746.793213 0.010614 0.975321 -0.220538 2.000000
-38.555099 28.194700 -746.955688 0.013134 0.970688 -0.239985 2.000000
-38.505100 28.118999 -747.110779 0.006379 0.927487 -0.373801 2.000000
-38.463600 28.075001 -747.271423 0.045060 0.877993 -0.476547 2.000000
-38.411499 27.991199 -747.425415 -0.074277 0.947358 -0.311442 2.000000
-38.663898 28.427799 -746.036072 0.152236 0.964161 -0.217294 2.000000
-38.258999 27.985701 -747.583923 -0.109094 0.912800 -0.393567 2.000000
-39.588902 28.644501 -740.774414 -0.303080 0.950511 0.068354 2.000000
-39.589901 28.741899 -740.932495 -0.127561 0.825479 0.549830 2.000000
-39.588299 28.830900 -741.091614 -0.125550 0.952861 0.276211 2.000000
-39.559799 28.835501 -741.261230 -0.061152 0.998124 0.003109 2.000000
-39.528400 28.831301 -741.432007 -0.004945 0.999948 -0.008902 2.000000
-39.498001 28.830299 -741.602417 -0.084392 0.993577 -0.075390 2.000000
-39.464500 28.819599 -741.774170 -0.040868 0.998636 -0.032484 2.000000
-39.433800 28.817600 -741.944885 -0.036973 0.998283 -0.045425 2.000000
-39.402500 28.813999 -742.115906 -0.084554 0.990325 0.110036 2.000000
-39.370201 28.806900 -742.287415 -0.075545 0.993356 -0.086820 2.000000
-39.340900 28.809601 -742.457581 -0.068328 0.997596 -0.011563 2.000000
-39.311798 28.812799 -742.627930 -0.066511 0.997660 0.015836 2.000000
-39.276299 28.795900 -742.801025 -0.021784 0.998944 -0.040456 2.000000
-39.245098 28.792700 -742.972229 -0.052605 0.997340 -0.050457 2.000000
-39.215199 28.793400 -743.143005 -0.056912 0.994279 -0.090389 2.000000
-39.185101 28.793400 -743.313904 -0.048702 0.996770 0.063854 2.000000
-39.153198 28.788300 -743.485718 -0.069758 0.997009 -0.033269 2.000000
-39.107899 28.775101 -743.720276 -0.079566 0.990534 -0.111853 2.000000
-39.073898 28.758600 -743.885193 -0.057509 0.952101 -0.300327 2.000000
-39.031700 28.710899 -744.044006 -0.120678 0.976620 -0.177907 2.000000
-38.995201 28.684999 -744.207092 -0.053574 0.996032 0.071067 2.000000
-38.964100 28.679300 -744.374084 -0.022353 0.997353 0.069187 2.000000
-38.942501 28.709999 -744.547974 -0.092810 0.988013 0.123355 2.000000
-38.914902 28.717699 -744.717529 -0.115356 0.989264 -0.089721 2.000000
-38.884602 28.715200 -744.885010 -0.150369 0.974241 -0.168060 2.000000
-38.851200 28.701000 -745.050293 -0.091254 0.994996 -0.040679 2.000000
-38.817200 28.684401 -745.215088 -0.027902 0.992181 -0.121651 2.000000
-38.776501 28.642700 -745.375183 -0.020628 0.967088 -0.253603 2.000000
-38.735298 28.598801 -745.534973 0.043061 0.930379 -0.364061 2.000000
-38.693001 28.551001 -745.694214 0.060354 0.971820 -0.227867 2.000000
-38.647202 28.489799 -745.851013 0.115259 0.977844 -0.174748 2.000000
-38.552200 28.355499 -746.162781 0.091296 0.943390 -0.318874 2.000000
-38.513100 28.320000 -746.324524 0.055946 0.966009 -0.252381 2.000000
-38.473202 28.281401 -746.485718 -0.020378 0.996376 -0.082584 2.000000
-38.439899 28.267500 -746.651306 -0.012531 0.985409 -0.169741 2.000000
-38.406700 28.254499 -746.817078 -0.085776 0.973373 -0.212576 2.000000
-38.359001 28.186701 -746.973328 -0.060303 0.950736 -0.304081 2.000000
-38.318802 28.146999 -747.134583 0.033140 0.908042 -0.417567 2.000000
-38.275299 28.095301 -747.293823 0.091295 0.880643 -0.464901 2.000000
-38.146500 27.973301 -747.383179 0.103312 0.986803 -0.124686 2.000000
-39.421001 28.696501 -740.665771 -0.496330 0.570359 -0.654483 2.000000
-39.427601 28.811399 -740.821777 -0.045370 0.969932 0.239111 2.000000
-39.411800 28.856300 -740.986206 0.018730 0.950251 0.310923 2.000000
-39.379799 28.850201 -741.156982 -0.022308 0.997509 0.066925 2.000000
-39.345001 28.835199 -741.328979 -0.032031 0.999153 0.025831 2.000000
-39.316700 28.840900 -741.498474 -0.068470 0.997559 0.013694 2.000000
-39.288300 28.846100 -741.668030 -0.073903 0.992572 -0.096642 2.000000
-39.248798 28.816700 -741.842102 -0.089087 0.993487 -0.071044 2.000000
-39.217602 28.813299 -742.012878 -0.059822 0.998085 -0.015743 2.000000
-39.186798 28.810900 -742.183594 -0.009222 0.999075 0.042012 2.000000
-39.158501 28.816601 -742.353271 -0.002973 0.999913 0.012883 2.000000
-39.126499 28.810900 -742.524597 0.024727 0.996609 -0.078482 2.000000
-39.097198 28.813400 -742.694885 0.015867 0.997507 0.068757 2.000000
-39.063900 28.803801 -742.866821 -0.007244 0.998580 -0.052775 2.000000
-39.035500 28.809200 -743.036804 -0.086853 0.996124 0.013939 2.000000
-39.003300 28.802900 -743.208374 -0.140892 0.986245 -0.086430 2.000000
-38.975800 28.811300 -743.378113 -0.095026 0.995038 0.029491 2.000000
-38.945099 28.809799 -743.549194 -0.130739 0.989221 -0.065948 2.000000
-38.911301 28.798401 -743.721680 -0.158777 0.976419 -0.146275 2.000000
-38.866199 28.739599 -743.877686 -0.152539 0.919433 -0.362455 2.000000
-38.827301 28.704500 -744.039001 -0.153052 0.980756 -0.121217 2.000000
-38.797798 28.705299 -744.207275 -0.133833 0.986577 0.093565 2.000000
-38.772499 28.722000 -744.378601 -0.113979 0.988210 0.102229 2.000000
-38.749500 28.747400 -744.551514 -0.073233 0.989233 0.126706 2.000000
-38.721100 28.752300 -744.720520 -0.070466 0.994348 -0.079414 2.000000
-38.691399 28.752300 -744.888306 -0.074853 0.984973 -0.155647 2.000000
-38.657501 28.736300 -745.053223 -0.089087 0.993487 -0.071044 2.000000
-38.614201 28.684500 -745.211304 -0.012717 0.981554 -0.190761 2.000000
-38.574699 28.647100 -745.372314 -0.026212 0.954882 -0.295826 2.000000
-38.532700 28.600201 -745.531372 -0.022238 0.914393 -0.404217 2.000000
-38.491699 28.557600 -745.691528 -0.088664 0.959889 -0.265993 2.000000
-38.442200 28.482401 -745.845581 -0.047241 0.948641 -0.312809 2.000000
-38.395802 28.419399 -746.002075 -0.014146 0.927226 -0.374234 2.000000
-38.353600 28.372000 -746.161621 -0.084785 0.927253 -0.364710 2.000000
-38.310902 28.323099 -746.320801 -0.095914 0.962979 -0.251935 2.000000
-38.271702 28.287100 -746.482422 -0.153782 0.976455 -0.151282 2.000000
-38.237400 28.269699 -746.647400 -0.053023 0.983869 -0.170852 2.000000
-38.203701 28.254601 -746.812805 -0.014959 0.983852 -0.178359 2.000000
-38.160000 28.201900 -746.971619 0.016449 0.940146 -0.340376 2.000000
-38.107101 28.115000 -747.124512 0.031436 0.859711 -0.509813 2.000000
-37.963902 27.821100 -747.441711 -0.944787 0.102032 -0.311395 2.000000
-39.237499 28.635000 -740.685913 0.679206 0.442235 0.585753 2.000000
-39.237801 28.730499 -740.844421 0.196250 0.849417 0.489875 2.000000
-39.228001 28.794300 -741.006714 0.088459 0.918611 0.385136 2.000000
-39.206501 28.821400 -741.173279 0.007201 0.998902 0.046293 2.000000
-39.178902 28.829300 -741.342407 -0.025168 0.999658 -0.007047 2.000000
-39.147400 28.825199 -741.513123 -0.014924 0.999876 0.004975 2.000000
-39.119801 28.833099 -741.682312 0.003068 0.999028 -0.043970 2.000000
-39.087200 28.825701 -741.853516 -0.005093 0.999198 -0.039723 2.000000
-39.055801 28.821600 -742.024414 0.092269 0.995421 -0.024967 2.000000
-39.026100 28.823099 -742.194519 -0.029207 0.996276 0.081130 2.000000
-38.997398 28.827900 -742.364319 0.009061 0.999691 -0.023155 2.000000
-38.964901 28.820801 -742.535828 -0.007618 0.993668 -0.112101 2.000000
-38.933498 28.817200 -742.706787 -0.101373 0.992090 0.074037 2.000000
-38.902401 28.814400 -742.877808 -0.098643 0.994184 -0.043225 2.000000
-38.873901 28.819799 -743.047729 -0.124373 0.989175 0.077879 2.000000
-38.832500 28.832300 -743.302124 -0.139840 0.990067 -0.014543 2.000000
-38.806599 28.846001 -743.471008 -0.136446 0.990617 0.007765 2.000000
-38.778099 28.851200 -743.641113 -0.149666 0.981956 -0.115596 2.000000
-38.739498 28.825399 -743.815674 -0.112374 0.950550 -0.289528 2.000000
-38.672199 28.743700 -744.058105 -0.070333 0.990429 -0.118759 2.000000
-38.639702 28.733299 -744.224121 -0.085427 0.983015 0.162432 2.000000
-38.614799 28.751801 -744.395813 -0.106992 0.993814 0.029781 2.000000
-38.587898 28.762800 -744.565918 -0.106583 0.991334 0.076785 2.000000
-38.559700 28.768600 -744.734985 -0.087785 0.994526 -0.056671 2.000000
-38.528599 28.763500 -744.901917 -0.129200 0.984091 -0.121955 2.000000
-38.494999 28.748800 -745.067017 -0.134091 0.980461 -0.143932 2.000000
-38.448399 28.684900 -745.222778 -0.037733 0.970093 -0.239784 2.000000
-38.408501 28.646500 -745.383484 -0.018593 0.955694 -0.293774 2.000000
-38.367199 28.602600 -745.543274 0.022179 0.917155 -0.397912 2.000000
-38.320599 28.539000 -745.699402 0.113830 0.941440 -0.317385 2.000000
-38.274899 28.478500 -745.856201 0.062031 0.976678 -0.205552 2.000000
-38.238899 28.454901 -746.020020 -0.084616 0.966141 -0.243745 2.000000
-38.198898 28.416300 -746.180908 -0.096378 0.946616 -0.307617 2.000000
-38.160900 28.385300 -746.343323 -0.128386 0.963546 -0.234726 2.000000
-38.119499 28.341200 -746.503418 -0.111778 0.964888 -0.237689 2.000000
-38.076401 28.291100 -746.662476 -0.034967 0.973059 -0.227891 2.000000
-38.036701 28.253700 -746.823914 0.033140 0.965969 -0.256528 2.000000
-37.986198 28.175900 -746.978271 0.101596 0.948669 -0.299510 2.000000
-37.939899 28.113501 -747.135376 0.040286 0.840450 -0.540389 2.000000
-37.889900 28.037701 -747.290527 0.033793 0.885379 -0.463641 2.000000
-37.838402 27.982700 -747.489075 0.115239 0.880653 0.459533 2.000000
-39.051399 28.644300 -740.791077 0.111161 0.686232 0.718839 2.000000
-39.057701 28.759001 -740.947205 0.017461 0.874404 0.484885 2.000000
-39.042702 28.806601 -741.111389 0.051328 0.980016 0.192183 2.000000
-39.025299 28.846500 -741.276489 -0.005429 0.993465 0.114004 2.000000
-38.995300 28.847401 -741.446411 -0.034301 0.998892 0.032222 2.000000
-38.965302 28.847900 -741.616516 0.026090 0.998743 -0.042788 2.000000
-38.929199 28.829500 -741.789124 0.021871 0.998757 -0.044783 2.000000
-38.897499 28.825100 -741.959900 -0.038552 0.994651 -0.095830 2.000000
-38.871201 28.837400 -742.128601 -0.033205 0.988129 0.149994 2.000000
-38.840000 28.834400 -742.299377 -0.030025 0.999098 -0.030025 2.000000
-38.808998 28.832100 -742.470093 -0.060937 0.997440 -0.037417 2.000000
-38.778702 28.831800 -742.640625 -0.085259 0.983475 0.159710 2.000000
-38.748402 28.831800 -742.811218 -0.104588 0.994135 -0.027523 2.000000
-38.722698 28.846201 -742.979797 -0.149007 0.986728 0.064530 2.000000
-38.694599 28.853100 -743.149475 -0.145782 0.989311 0.003339 2.000000
-38.666401 28.859600 -743.319275 -0.137042 0.990489 -0.012256 2.000000
-38.638199 28.866100 -743.489075 -0.106647 0.994296 -0.001077 2.000000
-38.605400 28.858500 -743.661011 -0.120276 0.982860 -0.139714 2.000000
-38.563000 28.820999 -743.837219 -0.048647 0.926923 -0.372084 2.000000
-38.513302 28.761000 -744.016785 -0.022215 0.980963 -0.192919 2.000000
-38.461399 28.720100 -744.240784 -0.046174 0.981487 0.185879 2.000000
-38.442600 28.762501 -744.417114 -0.067764 0.997701 0.001043 2.000000
-38.415199 28.771500 -744.586792 -0.029486 0.999478 0.013218 2.000000
-38.385201 28.770800 -744.754578 0.017389 0.999346 -0.031709 2.000000
-38.349800 28.749901 -744.918579 0.005274 0.996852 -0.079115 2.000000
-38.319599 28.748400 -745.086182 0.012810 0.979410 -0.201472 2.000000
-38.279499 28.709000 -745.246582 -0.001177 0.973308 -0.229498 2.000000
-38.231998 28.642099 -745.401917 -0.013990 0.934819 -0.354850 2.000000
-38.187000 28.584499 -745.559082 0.027599 0.913409 -0.406106 2.000000
-38.139900 28.518900 -745.714905 -0.001254 0.939536 -0.342448 2.000000
-38.098099 28.473600 -745.874573 -0.016882 0.989261 -0.145182 2.000000
-38.058701 28.437500 -746.035889 0.027758 0.971517 -0.235337 2.000000
-38.008301 28.360001 -746.189880 0.031402 0.953359 -0.300201 2.000000
-37.971802 28.334900 -746.353394 0.005797 0.979662 -0.200570 2.000000
-37.931499 28.295401 -746.514404 -0.070453 0.994169 -0.081636 2.000000
-37.895599 28.272600 -746.678406 0.013179 0.969278 -0.245614 2.000000
-37.851299 28.218000 -746.836792 0.050939 0.933873 -0.353958 2.000000
-37.807999 28.167400 -746.995972 0.050231 0.944084 -0.325857 2.000000
-37.752899 28.072300 -747.147400 0.069067 0.844306 -0.531391 2.000000
-37.706299 28.009399 -747.304688 0.036575 0.881875 -0.470062 2.000000
-38.838600 28.832600 -741.479187 0.011701 0.996744 -0.079782 2.000000
-38.804199 28.819401 -741.651001 0.007215 0.998800 -0.048445 2.000000
-38.402302 28.794800 -743.871521 -0.041380 0.906359 -0.420476 2.000000
-38.352200 28.733500 -744.051208 -0.122084 0.989458 -0.077901 2.000000
-38.161598 28.728201 -745.114685 0.020329 0.972219 -0.233189 2.000000
-37.941502 28.459400 -745.904175 0.008075 0.981685 -0.190339 2.000000
-37.645901 28.132700 -747.022095 0.019490 0.921240 -0.388506 2.000000
-37.594799 28.052799 -747.176270 0.072339 0.838283 -0.540416 2.000000
-37.542999 28.005100 -747.387817 -0.054314 0.958710 -0.279150 2.000000
-38.817299 28.679100 -740.734619 0.403966 0.893975 0.193962 2.000000
-38.808300 28.745899 -740.896484 -0.003996 0.872386 0.488802 2.000000
-38.792400 28.790701 -741.060974 -0.024973 0.913472 0.406134 2.000000
-38.775398 28.832399 -741.225830 -0.022264 0.997658 0.064673 2.000000
-38.668301 28.828199 -741.821594 -0.077825 0.996802 -0.018124 2.000000
-38.639301 28.832001 -741.991272 -0.041113 0.998308 -0.041113 2.000000
-38.607601 28.827499 -742.162109 -0.009703 0.995128 0.098111 2.000000
-38.577801 28.829000 -742.332214 -0.005153 0.998605 0.052558 2.000000
-38.547001 28.827499 -742.502808 -0.019630 0.999076 -0.038227 2.000000
-38.519199 28.835100 -742.672180 -0.038755 0.982961 0.179681 2.000000
-38.491402 28.842800 -742.841675 -0.138997 0.989060 0.049396 2.000000
-38.466400 28.859501 -743.009888 -0.147812 0.984214 0.097340 2.000000
-38.442902 28.880501 -743.177612 -0.167134 0.985513 -0.028816 2.000000
-38.415798 28.890600 -743.346680 -0.169010 0.985318 -0.024144 2.000000
-38.385300 28.889999 -743.517517 -0.109509 0.987935 -0.109509 2.000000
-38.346500 28.863701 -743.691772 -0.054368 0.977422 -0.204183 2.000000
-38.224602 28.768299 -744.218079 -0.104970 0.983340 0.148406 2.000000
-38.183701 28.776100 -744.461426 -0.084868 0.995264 0.047394 2.000000
-38.157001 28.787901 -744.631714 -0.026038 0.998835 -0.040620 2.000000
-38.124500 28.778000 -744.797729 -0.026615 0.997534 -0.064941 2.000000
-38.091301 28.765200 -744.963196 0.016589 0.992022 -0.124970 2.000000
-38.030102 28.702600 -745.203125 -0.013256 0.967673 -0.251860 2.000000
-37.990700 28.666100 -745.364075 0.021345 0.947964 -0.317662 2.000000
-37.939301 28.584200 -745.516602 0.051838 0.918458 -0.392106 2.000000
-37.892899 28.521500 -745.672913 0.006268 0.941411 -0.337203 2.000000
-37.810200 28.434299 -745.992676 -0.040497 0.968254 -0.246666 2.000000
-37.771301 28.400101 -746.154480 -0.015702 0.967485 -0.252440 2.000000
-37.730499 28.358999 -746.315125 -0.022408 0.977712 -0.208752 2.000000
-37.691700 28.325001 -746.477112 0.010116 0.988020 -0.153992 2.000000
-37.650002 28.280300 -746.637024 0.031480 0.950701 -0.308506 2.000000
-37.612999 28.253500 -746.800415 -0.011160 0.951075 -0.308758 2.000000
-38.669498 28.857800 -741.354309 -0.078950 0.996878 -0.001053 2.000000
-38.635899 28.847401 -741.525574 -0.039162 0.998097 -0.047629 2.000000
-38.224300 28.841200 -743.826477 -0.033226 0.905071 -0.423961 2.000000
-38.178600 28.793600 -744.004089 -0.055424 0.996540 -0.061944 2.000000
-37.769901 28.497900 -745.807129 -0.080858 0.971535 -0.222669 2.000000
-37.487099 28.220301 -746.932800 0.042869 0.934019 -0.354641 2.000000
-37.437599 28.146400 -747.087830 0.040501 0.819804 -0.571210 2.000000
-37.375099 28.023500 -747.234314 0.025234 0.899132 -0.436949 2.000000
-38.569801 28.630600 -740.765320 0.197375 0.871120 -0.449658 2.000000
-38.574402 28.740400 -740.922119 -0.004080 0.830996 0.556264 2.000000
-38.583099 28.863001 -741.077026 0.023465 0.959611 0.280350 2.000000
-38.479500 28.870001 -741.670776 -0.042699 0.998749 -0.026036 2.000000
-38.450001 28.872200 -741.840515 -0.074811 0.996391 -0.040116 2.000000
-38.416199 28.861099 -742.012024 -0.075903 0.995536 -0.056102 2.000000
-38.384399 28.856300 -742.182800 -0.108715 0.993805 0.023061 2.000000
-38.351002 28.846800 -742.354187 -0.091688 0.995619 -0.018338 2.000000
-38.322399 28.851999 -742.523804 -0.117233 0.992576 0.032379 2.000000
-38.296398 28.865601 -742.692322 -0.142123 0.974736 0.172308 2.000000
-38.280899 28.911900 -742.856506 -0.157564 0.986233 0.050187 2.000000
-38.258701 28.937000 -743.023376 -0.146555 0.985371 0.086980 2.000000
-38.229599 28.941000 -743.193298 -0.143589 0.989296 -0.026004 2.000000
-38.196999 28.933901 -743.364685 -0.099722 0.991491 -0.083675 2.000000
-38.162498 28.920799 -743.536987 -0.087195 0.993122 -0.078136 2.000000
-38.129799 28.913601 -743.708618 -0.085385 0.962175 -0.258704 2.000000
-38.024700 28.775801 -744.069580 -0.084718 0.996238 -0.018230 2.000000
-37.991901 28.768499 -744.241577 -0.158648 0.984095 0.079920 2.000000
-37.964199 28.778900 -744.414673 -0.080622 0.996489 0.022574 2.000000
-37.947601 28.829700 -744.592590 -0.032874 0.997878 -0.056204 2.000000
-37.916801 28.825899 -744.759705 -0.049005 0.996439 -0.068607 2.000000
-37.885502 28.820601 -744.926514 -0.090112 0.988893 -0.118199 2.000000
-37.844700 28.778999 -745.086426 -0.070709 0.971321 -0.227014 2.000000
-37.800800 28.725500 -745.244019 -0.013316 0.964790 -0.262684 2.000000
-37.747101 28.634701 -745.394592 0.006484 0.911587 -0.411057 2.000000
-37.702400 28.578400 -745.551880 -0.090615 0.946861 -0.308616 2.000000
-37.625702 28.514000 -745.875916 -0.102419 0.969818 -0.221275 2.000000
-37.582600 28.463699 -746.034485 -0.065786 0.950675 -0.303132 2.000000
-37.539902 28.415199 -746.193481 -0.074701 0.963514 -0.257022 2.000000
-37.494999 28.358500 -746.351196 -0.031735 0.981420 -0.189232 2.000000
-37.458599 28.333799 -746.514709 0.018211 0.965162 -0.261019 2.000000
-37.418999 28.297100 -746.676086 0.018159 0.967290 -0.253021 2.000000
-37.201500 27.954599 -747.328125 -0.108132 0.843431 0.526243 2.000000
-38.411999 28.683300 -740.674805 -0.224162 0.954368 -0.197316 2.000000
-38.397301 28.732100 -740.838928 -0.023343 0.836233 0.547877 2.000000
-38.384701 28.787399 -741.002075 0.036145 0.900955 0.432405 2.000000
-38.367298 28.827400 -741.167114 0.026552 0.984737 0.172012 2.000000
-38.346001 28.855400 -741.333618 0.027508 0.999471 0.017320 2.000000
-38.316399 28.857100 -741.503174 -0.023763 0.999063 0.036161 2.000000
-38.287601 28.861601 -741.672729 -0.064670 0.997609 -0.024384 2.000000
-38.253300 28.848600 -741.844299 -0.073578 0.997038 0.022393 2.000000
-38.219002 28.835899 -742.016113 -0.090726 0.995848 -0.007472 2.000000
-38.190701 28.841801 -742.185425 -0.111142 0.993804 -0.001079 2.000000
-38.162102 28.846800 -742.354980 -0.151796 0.988360 0.010120 2.000000
-38.140999 28.875401 -742.521484 -0.148406 0.983340 0.104970 2.000000
-38.117100 28.895399 -742.689087 -0.167257 0.971622 0.167257 2.000000
-38.101799 28.941999 -742.853271 -0.116225 0.992896 0.025459 2.000000
-38.073601 28.948500 -743.022705 -0.087920 0.992240 0.087920 2.000000
-38.043999 28.950399 -743.192810 -0.086150 0.995632 -0.035987 2.000000
-38.014099 28.951700 -743.362976 -0.130369 0.987751 -0.085738 2.000000
-37.979698 28.938900 -743.535278 -0.117084 0.987528 -0.105258 2.000000
-37.941502 28.914301 -743.709412 -0.088664 0.959889 -0.265993 2.000000
-37.888802 28.844601 -743.889771 -0.087542 0.927945 -0.362289 2.000000
-37.843300 28.797199 -744.067322 -0.111602 0.993369 -0.027624 2.000000
-37.810501 28.789801 -744.239319 -0.039165 0.992563 0.115258 2.000000
-37.789398 28.818399 -744.406128 -0.046766 0.998711 -0.019746 2.000000
-37.758301 28.823700 -744.590088 -0.094356 0.992443 -0.078441 2.000000
-37.730801 28.832600 -744.759705 -0.101585 0.991883 -0.076474 2.000000
-37.692699 28.801100 -744.921509 -0.075567 0.989351 -0.124395 2.000000
-37.649101 28.748600 -745.079285 -0.031809 0.945367 -0.324453 2.000000
-37.606998 28.701500 -745.238220 0.025820 0.962720 -0.269266 2.000000
-37.560699 28.638901 -745.394226 0.001256 0.938428 -0.345472 2.000000
-37.516102 28.582701 -745.551575 -0.053467 0.966141 -0.252415 2.000000
-37.480400 28.560499 -745.715271 -0.039899 0.973288 -0.226093 2.000000
-37.444599 28.537701 -745.879089 -0.041796 0.978035 -0.204205 2.000000
-37.397999 28.474001 -746.035278 0.013473 0.959044 -0.282936 2.000000
-37.354500 28.422100 -746.193726 -0.023816 0.951380 -0.307099 2.000000
-37.315899 28.389099 -746.355713 0.003500 0.976427 -0.215817 2.000000
-37.273998 28.343500 -746.515381 0.029172 0.944930 -0.325969 2.000000
-37.230499 28.291800 -746.674072 0.039610 0.975843 -0.214853 2.000000
-37.186901 28.239799 -746.832886 0.043861 0.913096 -0.405378 2.000000
-37.134399 28.154301 -746.985718 0.072456 0.900917 -0.427901 2.000000
-37.082802 28.072100 -747.139282 0.044432 0.898075 -0.437593 2.000000
-38.162102 28.605200 -740.822083 0.034343 0.853084 0.520642 2.000000
-38.175999 28.743799 -740.975403 0.026009 0.852824 0.521550 2.000000
-38.185902 28.869699 -741.130127 -0.036023 0.960194 0.277003 2.000000
-38.156300 28.871599 -741.299622 -0.019668 0.998905 0.042441 2.000000
-38.125198 28.868500 -741.469910 -0.023341 0.999612 0.015223 2.000000
-38.097900 28.877600 -741.638672 -0.059901 0.996534 -0.057723 2.000000
-38.062801 28.862000 -741.810730 -0.021481 0.999388 0.027619 2.000000
-38.036499 28.874399 -741.979187 -0.086305 0.996241 -0.007458 2.000000
-38.013802 28.897900 -742.146179 -0.114992 0.991668 0.058066 2.000000
-37.988400 28.913000 -742.314514 -0.164435 0.985444 0.043150 2.000000
-37.960499 28.920000 -742.483704 -0.174374 0.978227 0.112539 2.000000
-37.942600 28.958700 -742.648804 -0.170198 0.977705 0.122990 2.000000
-37.916302 28.970800 -742.817383 -0.120868 0.992445 0.021069 2.000000
-37.887699 28.975901 -742.987000 -0.095031 0.995100 0.027308 2.000000
-37.858200 28.978300 -743.156982 -0.063611 0.997961 0.005214 2.000000
-37.821400 28.957899 -743.330200 -0.045901 0.993026 -0.108595 2.000000
-37.787701 28.947201 -743.502075 -0.045457 0.994511 -0.094240 2.000000
-37.744801 28.907801 -743.678223 -0.003623 0.962379 -0.271688 2.000000
-37.701599 28.867500 -743.854370 0.034132 0.949387 -0.312248 2.000000
-37.657398 28.824600 -744.031311 -0.006924 0.999964 -0.004945 2.000000
-37.624802 28.817301 -744.203125 -0.009797 0.993889 0.109948 2.000000
-37.601002 28.837700 -744.371094 -0.062171 0.997905 0.017914 2.000000
-37.564999 28.827900 -744.557617 -0.059169 0.997273 -0.044108 2.000000
-37.532398 28.817301 -744.723389 -0.072208 0.991428 -0.108885 2.000000
-37.499802 28.806900 -744.889282 -0.062007 0.993244 -0.098084 2.000000
-37.453899 28.745399 -745.045288 -0.001275 0.924466 -0.381263 2.000000
-37.403900 28.668400 -745.198486 0.039656 0.945348 -0.323644 2.000000
-37.361000 28.618799 -745.357117 0.049746 0.950278 -0.307405 2.000000
-37.320400 28.577700 -745.517273 0.005901 0.973694 -0.227785 2.000000
-37.286800 28.563299 -745.682617 0.012949 0.975911 -0.217785 2.000000
-37.251701 28.543400 -745.846924 -0.012810 0.979410 -0.201472 2.000000
-37.208401 28.492001 -746.005310 -0.021071 0.955647 -0.293759 2.000000
-37.159000 28.417801 -746.159607 -0.038986 0.954534 -0.295541 2.000000
-37.121300 28.388000 -746.322205 -0.057623 0.972232 -0.226813 2.000000
-37.082001 28.352200 -746.483704 -0.021259 0.951670 -0.306385 2.000000
-37.036999 28.295000 -746.641418 -0.063325 0.947295 -0.314042 2.000000
-36.992298 28.238701 -746.799377 0.027883 0.904196 -0.426207 2.000000
-36.934200 28.132099 -746.948425 0.001322 0.884429 -0.466672 2.000000
-36.890701 28.080400 -747.107483 -0.062142 0.929482 -0.363595 2.000000
-38.003101 28.494699 -740.593689 -0.164375 0.507933 0.845568 2.000000
-37.991100 28.584499 -740.810181 -0.307028 0.529743 0.790637 2.000000
-38.004700 28.722700 -740.963623 -0.135694 0.887010 0.441362 2.000000
-38.004002 28.815701 -741.122314 -0.097885 0.954049 0.283213 2.000000
-37.985100 28.851299 -741.287720 -0.034822 0.991865 0.122439 2.000000
-37.959900 28.867300 -741.455627 -0.045057 0.998584 0.028291 2.000000
-37.931801 28.874300 -741.624573 -0.076340 0.996719 -0.026880 2.000000
-37.904701 28.884399 -741.793274 -0.118800 0.992903 -0.005450 2.000000
-37.875999 28.889099 -741.962708 -0.126280 0.990897 0.046644 2.000000
-37.854401 28.916500 -742.129272 -0.134583 0.983306 0.122459 2.000000
-37.828300 28.929800 -742.297607 -0.113790 0.993180 0.025409 2.000000
-37.803600 28.947500 -742.465393 -0.107596 0.987280 0.117055 2.000000
-37.783501 28.979401 -742.631287 -0.099325 0.992111 0.076492 2.000000
-37.756199 28.988701 -742.800293 -0.091302 0.995725 0.013964 2.000000
-37.724998 28.986200 -742.970825 -0.086304 0.996223 -0.009589 2.000000
-37.694698 28.986401 -743.141113 -0.054614 0.998503 0.003091 2.000000
-37.663399 28.983200 -743.311829 -0.054118 0.989089 -0.137022 2.000000
-37.628399 28.969000 -743.484192 -0.025614 0.992274 -0.121389 2.000000
-37.580799 28.915300 -743.662170 -0.003631 0.962200 -0.272321 2.000000
-37.534199 28.865000 -743.839783 -0.008887 0.933178 -0.359305 2.000000
-37.488899 28.818600 -744.017029 -0.074662 0.996569 -0.035708 2.000000
-37.453300 28.802500 -744.190186 -0.074928 0.994199 0.077165 2.000000
-37.429001 28.821699 -744.358276 -0.049344 0.998437 0.026247 2.000000
-37.403900 28.854500 -744.553589 -0.035654 0.999339 -0.007131 2.000000
-37.369598 28.837700 -744.718201 -0.030434 0.990798 -0.131881 2.000000
-37.332100 28.808701 -744.880371 -0.016685 0.991061 -0.132364 2.000000
-37.290901 28.765900 -745.039978 0.019156 0.936105 -0.351199 2.000000
-37.248600 28.718700 -745.198792 0.016622 0.932092 -0.361841 2.000000
-37.208500 28.679899 -745.359314 0.061125 0.966768 -0.248241 2.000000
-37.158501 28.603300 -745.512695 0.003489 0.978085 -0.208177 2.000000
-37.118000 28.563200 -745.673096 -0.008353 0.970179 -0.242246 2.000000
-37.074402 28.511200 -745.831299 -0.015557 0.970516 -0.240535 2.000000
-37.031799 28.463200 -745.990417 0.035777 0.963517 -0.265245 2.000000
-36.993000 28.429399 -746.152222 -0.003586 0.967037 -0.254609 2.000000
-36.955101 28.399200 -746.314575 0.032441 0.974442 -0.222283 2.000000
-36.912899 28.352800 -746.474121 0.021156 0.954510 -0.297429 2.000000
-36.862400 28.275200 -746.628113 -0.041067 0.961971 -0.270049 2.000000
-36.819801 28.227200 -746.787476 0.039104 0.891303 -0.451719 2.000000
-36.776001 28.174999 -746.946289 0.075251 0.904381 -0.420038 2.000000
-36.740700 28.154600 -747.110779 -0.040437 0.995632 -0.084153 2.000000
-36.700100 28.138500 -747.311890 0.484720 0.816287 0.314200 2.000000
-36.632801 28.098700 -746.927979 0.095652 0.902453 -0.420036 2.000000
-36.584301 28.029100 -747.083923 -0.010006 0.990556 -0.136743 2.000000
-36.537300 28.017401 -747.327393 0.557919 0.826176 -0.078480 2.000000
-37.825500 28.731501 -740.659729 -0.136364 0.642859 -0.753749 2.000000
-37.791500 28.719900 -740.830688 0.060949 0.945352 0.320304 2.000000
-37.790798 28.813400 -740.989197 -0.027775 0.908651 0.416631 2.000000
-37.778000 28.868601 -741.152222 0.007942 0.985961 0.166785 2.000000
-37.753799 28.888000 -741.319519 -0.082544 0.989367 0.119747 2.000000
-37.723900 28.889200 -741.489014 -0.097196 0.994891 0.027302 2.000000
-37.696499 28.898701 -741.657593 -0.128214 0.991741 0.003288 2.000000
-37.668900 28.907101 -741.826294 -0.128215 0.991746 0.001096 2.000000
-37.644299 28.925301 -741.993774 -0.118489 0.990473 0.070173 2.000000
-37.619900 28.943899 -742.161316 -0.046863 0.998705 0.019787 2.000000
-37.589699 28.944401 -742.331177 -0.063992 0.996756 0.048807 2.000000
-37.560902 28.949400 -742.500488 -0.096027 0.980934 0.168959 2.000000
-37.533298 28.958300 -742.669373 -0.044019 0.997409 0.056903 2.000000
-37.504200 28.962299 -742.838928 -0.007430 0.996627 -0.081726 2.000000
-37.474899 28.965900 -743.008484 -0.023155 0.999707 -0.007047 2.000000
-37.444099 28.964600 -743.178894 -0.057491 0.998254 0.013589 2.000000
-37.414299 28.966600 -743.348877 -0.044914 0.995785 -0.079970 2.000000
-37.382198 28.961300 -743.519897 -0.022571 0.975291 -0.219767 2.000000
-37.340000 28.924700 -743.695313 0.016464 0.940953 -0.338135 2.000000
-37.290001 28.863600 -743.874329 -0.007736 0.991285 -0.131508 2.000000
-37.255901 28.852200 -744.046570 -0.047290 0.995285 0.084682 2.000000
-37.225300 28.851801 -744.217285 -0.084392 0.993577 0.075390 2.000000
-37.197201 28.859501 -744.386780 -0.066508 0.997624 0.017947 2.000000
-37.153599 28.852501 -744.619324 -0.058779 0.994800 -0.083177 2.000000
-37.119301 28.836100 -744.783875 -0.011542 0.997883 -0.064007 2.000000
-37.079601 28.798500 -744.944275 0.034968 0.933773 -0.356155 2.000000
-37.029301 28.720900 -745.097107 0.037155 0.941699 -0.334399 2.000000
-36.986301 28.671000 -745.255371 0.016898 0.919014 -0.393863 2.000000
-36.944401 28.625200 -745.414490 -0.012298 0.989468 -0.144228 2.000000
-36.905201 28.590000 -745.575623 0.034225 0.980726 -0.192369 2.000000
-36.867100 28.559200 -745.737671 -0.047731 0.970530 -0.236207 2.000000
-36.823101 28.505800 -745.895508 -0.036474 0.954625 -0.295569 2.000000
-36.780899 28.459200 -746.054688 -0.010652 0.974056 -0.226057 2.000000
-36.738602 28.412399 -746.213989 -0.001223 0.955540 -0.294859 2.000000
-36.694099 28.357000 -746.371704 0.026212 0.954882 -0.295826 2.000000
-36.652401 28.312799 -746.531616 0.006035 0.964411 -0.264338 2.000000
-36.607800 28.257299 -746.689514 0.068409 0.921509 -0.382285 2.000000
-37.630798 28.690399 -740.824890 0.112278 0.823861 0.555559 2.000000
-37.632099 28.837500 -741.061829 0.105532 0.941770 0.319267 2.000000
-37.620300 28.895800 -741.224426 -0.013415 0.962216 0.271957 2.000000
-37.594002 28.908001 -741.392517 -0.077337 0.994173 0.075095 2.000000
-37.564999 28.911900 -741.561584 -0.081649 0.994323 0.068227 2.000000
-37.540401 28.929600 -741.729126 -0.095024 0.993841 0.057014 2.000000
-37.513401 28.939501 -741.897583 -0.098111 0.995128 0.009703 2.000000
-37.485500 28.947100 -742.066528 -0.001048 0.997066 0.076536 2.000000
-37.458099 28.955799 -742.235229 -0.038382 0.998978 0.023859 2.000000
-37.430698 28.964800 -742.403870 -0.069910 0.991340 0.111168 2.000000
-37.403702 28.975100 -742.572510 -0.098673 0.990216 0.098673 2.000000
-37.380100 28.996099 -742.739685 -0.011118 0.999619 0.025268 2.000000
-37.349998 28.996700 -742.909607 -0.048408 0.997199 -0.057014 2.000000
-37.321098 29.000900 -743.079224 -0.047440 0.998339 0.032681 2.000000
-37.289799 28.997601 -743.249695 -0.083163 0.992255 -0.092276 2.000000
-37.257599 28.991600 -743.420715 -0.050749 0.983108 -0.175850 2.000000
-37.212502 28.945400 -743.597412 0.017395 0.982261 -0.186711 2.000000
-37.170200 28.908001 -743.772888 0.050513 0.941619 -0.332869 2.000000
-37.125099 28.861900 -743.949829 0.066698 0.996089 0.057950 2.000000
-37.094299 28.860500 -744.120605 -0.009387 0.998187 0.059453 2.000000
-37.067001 28.870300 -744.289795 -0.015743 0.998085 0.059822 2.000000
-37.040199 28.881300 -744.458923 -0.015283 0.999505 0.027509 2.000000
-36.431599 28.211000 -746.766296 0.068800 0.915987 -0.395264 2.000000
-36.376999 28.117100 -746.917480 0.030497 0.905626 -0.422979 2.000000
-36.333000 28.063900 -747.075989 0.083420 0.972402 -0.217888 2.000000
-37.447399 28.726801 -740.606689 -0.364059 0.726485 -0.582821 2.000000
-37.429401 28.774700 -740.787415 -0.163821 0.119478 0.979228 2.000000
-37.409801 28.808001 -740.953125 0.044038 0.979538 0.196384 2.000000
-37.384899 28.824400 -741.120728 -0.024342 0.936525 0.349755 2.000000
-37.370899 28.875601 -741.284119 -0.010671 0.973408 0.228828 2.000000
-37.357498 28.928101 -741.447327 -0.025607 0.992004 0.123583 2.000000
-37.332901 28.945801 -741.614807 -0.054196 0.997837 0.037193 2.000000
-37.304798 28.952101 -741.783691 0.008972 0.999876 0.012960 2.000000
-37.276501 28.958000 -741.952576 0.047472 0.987642 -0.149362 2.000000
-37.247299 28.960899 -742.122070 0.022338 0.979329 0.201039 2.000000
-37.228298 28.995899 -742.287415 0.027469 0.994386 0.102186 2.000000
-37.215000 29.049101 -742.450378 -0.024461 0.981953 0.187538 2.000000
-37.181198 29.037500 -742.621704 0.016055 0.996469 -0.082415 2.000000
-37.134399 28.985399 -742.798523 -0.029428 0.999525 -0.009133 2.000000
-37.108799 29.000000 -742.966614 -0.037842 0.999241 -0.009205 2.000000
-37.080700 29.006500 -743.135803 -0.001047 0.997389 0.072214 2.000000
-37.048000 28.998800 -743.307007 -0.043828 0.992311 -0.115751 2.000000
-37.006199 28.962299 -743.482178 -0.030754 0.963221 -0.266946 2.000000
-36.958000 28.906099 -743.660217 -0.001241 0.946931 -0.321435 2.000000
-36.921902 28.888000 -743.833191 -0.013095 0.972595 -0.232137 2.000000
-36.883400 28.862200 -744.007324 0.021723 0.986681 0.161208 2.000000
-36.853802 28.864500 -744.177612 -0.062836 0.995448 0.071655 2.000000
-36.829201 28.882200 -744.345581 -0.034232 0.998961 -0.030083 2.000000
-36.800800 28.888201 -744.515381 -0.022441 0.997025 0.073735 2.000000
-36.758999 28.844101 -744.677307 0.059325 0.977044 -0.204610 2.000000
-36.719200 28.805401 -744.837524 0.100736 0.965282 -0.241002 2.000000
-36.673500 28.744699 -744.993530 0.024879 0.915302 -0.402000 2.000000
-36.625401 28.674400 -745.147827 0.011052 0.956645 -0.291046 2.000000
-36.588799 28.648199 -745.310608 -0.003631 0.962200 -0.272321 2.000000
-36.548599 28.608601 -745.470886 -0.015284 0.976977 -0.212795 2.000000
-36.509998 28.575100 -745.632385 -0.022246 0.979976 -0.197869 2.000000
-36.471802 28.542900 -745.794312 0.054063 0.979147 -0.195829 2.000000
-36.430302 28.498301 -745.953796 0.020664 0.966331 -0.256473 2.000000
-36.385300 28.440100 -746.110779 -0.003679 0.955321 -0.295548 2.000000
-36.347000 28.408100 -746.272827 -0.006051 0.962188 -0.272317 2.000000
-36.292599 28.314301 -746.423523 0.026845 0.939567 -0.341312 2.000000
-36.253700 28.279900 -746.585205 0.024700 0.924288 -0.380895 2.000000
-36.205101 28.208500 -746.740295 0.006447 0.919393 -0.393289 2.000000
-36.158401 28.144400 -746.896790 -0.001266 0.932691 -0.360674 2.000000
-36.118500 28.124300 -747.088074 -0.207448 0.976583 0.057018 2.000000
-37.130501 28.615299 -740.730713 0.310059 0.881777 0.355433 2.000000
-37.129902 28.709101 -740.889404 0.575045 0.713451 0.400389 2.000000
-37.136700 28.825800 -741.045105 -0.051495 0.853146 0.519125 2.000000
-37.125401 28.885201 -741.207520 -0.046541 0.957237 0.285536 2.000000
-37.100498 28.901699 -741.375122 -0.017042 0.987304 0.157923 2.000000
-37.080101 28.932501 -741.541016 -0.020298 0.996748 0.077988 2.000000
-37.052502 28.940599 -741.709717 0.006978 0.999864 -0.014953 2.000000
-37.023602 28.944300 -741.879028 0.007515 0.995188 -0.097694 2.000000
-36.994301 28.947100 -742.048401 -0.033943 0.995283 0.090878 2.000000
-36.966000 28.953100 -742.217529 -0.024063 0.986569 0.161564 2.000000
-36.942501 28.974100 -742.384583 -0.039089 0.992849 0.112798 2.000000
-36.916100 28.986000 -742.552979 0.027035 0.995977 0.085431 2.000000
-36.887402 28.990801 -742.722290 0.005377 0.994753 0.102164 2.000000
-36.856899 28.989700 -742.892517 0.003232 0.994518 -0.104516 2.000000
-36.827202 28.991301 -743.062317 -0.035423 0.997225 0.065480 2.000000
-36.796398 28.989599 -743.232727 -0.072542 0.994388 0.077006 2.000000
-36.759399 28.968399 -743.405823 0.024416 0.982460 -0.184865 2.000000
-36.716999 28.930201 -743.581177 0.066169 0.945823 -0.317869 2.000000
-36.667099 28.868900 -743.760071 0.071058 0.968636 -0.238107 2.000000
-36.633900 28.859699 -743.931885 -0.040518 0.995427 0.086511 2.000000
-36.607800 28.873100 -744.100586 -0.066210 0.988507 0.135905 2.000000
-36.586201 28.900299 -744.267273 -0.048315 0.997446 0.052610 2.000000
-36.547401 28.873800 -744.441772 0.033005 0.997611 -0.060687 2.000000
-36.507999 28.845501 -744.616577 0.082355 0.964182 -0.252132 2.000000
-36.449100 28.779499 -744.838684 0.092603 0.976651 -0.193849 2.000000
-36.409000 28.740299 -744.998779 0.073280 0.955216 -0.286693 2.000000
-36.362000 28.674299 -745.153870 0.042886 0.986380 -0.158794 2.000000
-36.323502 28.641199 -745.315430 0.035239 0.970883 -0.236949 2.000000
-36.283901 28.603600 -745.476196 0.048444 0.965162 -0.257128 2.000000
-36.240101 28.550200 -745.633972 0.129389 0.948406 -0.289457 2.000000
-36.199402 28.508699 -745.794006 0.111518 0.973587 -0.199228 2.000000
-36.159100 28.468901 -745.954529 0.067699 0.973628 -0.217866 2.000000
-36.122501 28.443001 -746.117615 0.072435 0.984406 -0.160307 2.000000
-36.077900 28.386700 -746.275085 0.033655 0.958544 -0.282951 2.000000
-36.027500 28.308500 -746.428711 0.063650 0.905999 -0.418466 2.000000
-35.986900 28.267401 -746.589172 0.097886 0.934613 -0.341932 2.000000
-35.939499 28.200800 -746.745117 0.019139 0.935263 -0.353435 2.000000
-35.893501 28.139299 -746.902100 0.053429 0.936958 -0.345332 2.000000
-35.859100 28.133900 -747.086670 0.027168 0.366118 0.930172 2.000000
-36.920700 28.795601 -740.961792 -0.104519 0.663917 0.740466 2.000000
-36.916000 28.875799 -741.121826 -0.117155 0.938591 0.324534 2.000000
-36.907398 28.943899 -741.283081 -0.056081 0.965842 0.252988 2.000000
-36.879700 28.951401 -741.451721 -0.083866 0.991452 0.099949 2.000000
-36.848400 28.947701 -741.621826 -0.022485 0.996853 -0.076022 2.000000
-36.813702 28.933201 -741.793274 0.079305 0.996206 -0.035850 2.000000
-36.785400 28.939199 -741.962402 -0.025471 0.999488 0.019358 2.000000
-36.760502 28.955601 -742.130127 -0.034745 0.991901 0.122166 2.000000
-36.737301 28.977400 -742.297180 -0.011563 0.997596 0.068328 2.000000
-36.710899 28.989300 -742.465515 0.013167 0.999642 0.023295 2.000000
-36.685101 29.003099 -742.633606 0.023717 0.999207 0.031966 2.000000
-36.657299 29.010300 -742.802673 0.047633 0.998178 -0.037048 2.000000
-36.624901 29.003300 -742.973572 -0.043572 0.997905 0.047823 2.000000
-36.595402 29.005600 -743.143372 -0.042436 0.973595 0.224303 2.000000
-36.558998 28.986401 -743.316101 0.153620 0.952444 -0.263158 2.000000
-36.520802 28.961100 -743.489807 0.063267 0.968852 -0.239422 2.000000
-36.480701 28.930300 -743.664429 0.071151 0.950833 -0.301421 2.000000
-36.429401 28.864700 -743.843872 -0.023763 0.999063 -0.036161 2.000000
-36.394001 28.848499 -744.016724 0.023601 0.990118 0.138234 2.000000
-36.367199 28.859600 -744.185791 0.056554 0.997701 0.037347 2.000000
-36.342201 28.876101 -744.354126 0.049749 0.998151 -0.034930 2.000000
-36.311001 28.873199 -744.525208 0.023556 0.990466 -0.135726 2.000000
-36.245998 28.790800 -744.754211 0.010721 0.970853 -0.239437 2.000000
-36.202400 28.737600 -744.911682 0.018640 0.953135 -0.301971 2.000000
-36.160301 28.690800 -745.070496 0.036775 0.949802 -0.310683 2.000000
-36.117401 28.640600 -745.228699 0.129113 0.961173 -0.243880 2.000000
