ply
format ascii 1.0
element vertex 675
property float x
property float y
property float z
property float nx
property float ny
property float nz
property float label
element face 0
property list uchar int vertex_indices
end_header
-58.151600 107.233704 -833.097290 -0.863882 0.447771 -0.230670 2.000000
-48.094200 105.723602 -852.143677 -0.294123 0.935340 -0.196547 2.000000
-54.556000 106.094200 -840.683289 -0.451170 0.841875 -0.296129 2.000000
-53.187698 105.975197 -843.423706 -0.257966 0.942196 0.213822 2.000000
-49.547501 105.429298 -850.287415 -0.644734 0.696442 -0.315096 2.000000
-47.799000 105.359001 -853.941284 0.277052 0.932414 0.232049 2.000000
-52.911900 105.763802 -845.303772 -0.419823 0.862545 -0.282426 2.000000
-52.016800 105.603699 -846.934204 -0.184500 0.952126 -0.243755 2.000000
-51.046600 105.349403 -848.551819 0.393042 0.904711 0.164363 2.000000
-54.625401 105.236099 -842.305725 -0.320011 0.913696 -0.250506 2.000000
-49.551498 104.564003 -851.903381 -0.465977 0.794902 -0.388583 2.000000
-56.491501 105.117104 -839.845886 -0.243745 0.966141 0.084616 2.000000
-49.060398 103.994499 -853.577271 -0.040048 0.999134 -0.011295 2.000000
-48.433102 104.211800 -855.309814 0.997110 0.011631 0.075074 2.000000
-54.695499 104.484497 -844.026917 -0.973160 0.226626 -0.039993 2.000000
-53.593601 104.644501 -846.652283 -0.374992 0.859548 -0.347214 2.000000
-52.666698 104.457100 -848.271179 -0.518833 0.699006 -0.492141 2.000000
-51.576199 104.000603 -849.743225 -0.549131 0.759713 -0.348269 2.000000
-56.241100 104.364098 -841.544922 -0.783180 0.397265 -0.478340 2.000000
-59.632401 104.640999 -835.639221 -0.132718 0.931759 -0.337951 2.000000
-50.995998 103.443802 -851.396912 -0.692371 0.613431 -0.379900 2.000000
-59.077301 104.008102 -837.309692 -0.666235 0.592765 -0.452505 2.000000
-58.217899 103.821800 -839.656372 -0.282534 0.952732 -0.111700 2.000000
-56.048401 103.411102 -843.130127 -0.578292 0.681618 -0.448302 2.000000
-55.025200 103.779999 -845.747925 -0.925481 0.365572 -0.099207 2.000000
-54.290100 103.496902 -847.916077 -0.304717 0.905318 -0.295884 2.000000
-50.847500 102.609901 -853.027710 -0.361016 0.864903 -0.348726 2.000000
-49.962502 102.550598 -854.635620 -0.863517 0.473827 -0.172703 2.000000
-57.960300 102.875702 -841.266479 -0.862866 0.376831 -0.336841 2.000000
-53.719898 102.968697 -849.652283 -0.282846 0.707914 -0.647190 2.000000
-52.543701 102.502701 -851.120605 -0.123083 0.855790 -0.502469 2.000000
-59.938900 102.516296 -838.291870 0.898239 0.424597 0.113506 2.000000
-56.520000 102.301300 -844.552124 -0.380243 0.855158 -0.352307 2.000000
-59.306198 102.117401 -839.972473 -0.857049 0.354908 -0.373506 2.000000
-57.771198 102.091698 -842.909424 -0.933340 0.298053 -0.200101 2.000000
-56.094898 102.233002 -846.411621 -0.814884 0.519974 -0.256107 2.000000
-55.441601 101.953499 -848.142822 -0.449990 0.859072 -0.243934 2.000000
-52.621201 101.353203 -852.582275 -0.236780 0.616255 -0.751109 2.000000
-51.681499 101.265099 -854.256592 -0.842116 0.443629 -0.306649 2.000000
-50.883400 101.367302 -855.987915 -0.884268 0.465759 0.033751 2.000000
-54.360600 101.602798 -850.732117 -0.771226 0.052746 -0.634373 2.000000
-59.263401 101.099197 -841.559387 0.934874 0.106573 0.338605 2.000000
-58.293400 100.886398 -844.220581 -0.580681 0.772667 -0.256507 2.000000
-57.411400 100.861397 -845.887512 -0.920252 0.361677 -0.149419 2.000000
-61.066399 100.482803 -839.285278 0.960236 0.192047 0.202643 2.000000
-56.885799 100.690102 -847.697083 -0.759234 0.520851 -0.390230 2.000000
-56.053001 100.740700 -849.388672 -0.431621 0.836559 -0.337449 2.000000
-54.390499 100.535103 -852.237671 -0.942043 0.335089 -0.016438 2.000000
-53.230801 100.210098 -853.911987 -0.283543 0.841333 -0.460176 2.000000
-52.408199 100.283203 -855.622681 -0.108830 0.974467 -0.196394 2.000000
-51.649300 100.502998 -857.463928 -0.661850 0.693900 -0.283650 2.000000
-60.662201 99.817703 -841.013428 -0.168616 0.957259 -0.235000 2.000000
-59.828400 100.084198 -843.041992 -0.437759 0.842803 -0.313130 2.000000
-58.696800 99.555496 -845.488403 -0.453903 0.830846 -0.321973 2.000000
-55.935001 99.739700 -850.979492 -0.785007 0.359459 -0.504532 2.000000
-58.290901 99.196198 -847.249573 -0.870357 0.480050 -0.109685 2.000000
-57.399300 99.193001 -848.908813 -0.856721 0.426054 -0.290701 2.000000
-55.022598 98.957199 -852.951904 -0.977172 0.184536 -0.105272 2.000000
-53.978802 99.139603 -855.204773 -0.929263 0.195412 0.313503 2.000000
-53.274101 99.460403 -857.055725 -0.859562 0.480822 0.173096 2.000000
-62.608898 98.340797 -839.673523 -0.977274 0.202739 -0.061914 2.000000
-61.516800 98.435303 -841.860229 0.910551 0.293773 0.290850 2.000000
-60.715401 98.531197 -843.509216 -0.912590 0.126787 -0.388722 2.000000
-53.199299 99.382301 -858.893372 -0.406371 0.909888 -0.083463 2.000000
-63.764500 97.702301 -838.332825 -0.311924 0.848868 -0.426762 2.000000
-60.211601 97.845001 -845.148682 -0.843451 0.262714 -0.468584 2.000000
-57.539001 97.997101 -850.349426 -0.789380 0.482668 -0.379355 2.000000
-56.633801 97.985397 -852.006775 -0.305282 0.945173 -0.115980 2.000000
-55.135899 97.746597 -854.387817 -0.963358 0.249475 -0.098511 2.000000
-59.679798 97.429604 -846.887573 -0.680626 0.553531 -0.479950 2.000000
-58.928200 97.639297 -848.615112 -0.815529 0.520385 -0.253202 2.000000
-55.099201 97.979202 -856.223999 -0.032265 0.213906 0.976321 2.000000
-54.708900 98.609100 -857.973999 0.884565 0.440118 0.154402 2.000000
-63.407001 96.887001 -840.464478 -0.735111 0.564840 -0.374923 2.000000
-62.284199 96.966202 -842.646606 -0.784095 0.362262 -0.503946 2.000000
-61.554501 96.330002 -844.234497 -0.489083 0.855526 -0.169923 2.000000
-57.762199 96.517899 -851.434326 -0.118734 0.871193 -0.476367 2.000000
-56.860199 96.598297 -853.204285 -0.716933 0.575195 -0.393901 2.000000
-54.956100 98.578102 -859.859924 -0.249043 0.932857 -0.260299 2.000000
-65.112900 96.340897 -838.837219 -0.412421 0.854190 -0.316653 2.000000
-61.031399 96.217102 -846.028015 0.900677 0.433758 -0.025203 2.000000
-56.225399 96.349998 -854.942627 0.853175 0.004043 0.521609 2.000000
-60.225601 95.925003 -847.782227 -0.439203 0.829607 -0.344751 2.000000
-59.419201 96.217102 -849.704224 -0.800162 0.466627 -0.376830 2.000000
-63.712399 95.857201 -841.976318 -0.702687 0.475691 -0.529102 2.000000
-64.956100 95.519096 -840.508789 -0.317684 0.893394 -0.317684 2.000000
-62.891701 95.044601 -843.447021 0.957018 0.138603 0.254765 2.000000
-59.063000 95.095299 -851.137512 -0.866281 0.272521 -0.418677 2.000000
-58.193298 95.170097 -852.807617 -0.608398 0.760886 -0.225621 2.000000
-67.034103 95.745796 -838.689880 -0.281633 0.959503 0.006096 2.000000
-62.490398 94.767601 -845.260071 0.877282 0.354258 0.323849 2.000000
-57.402599 94.836601 -854.450317 -0.508239 0.859132 -0.059875 2.000000
-61.881302 94.702499 -847.001526 -0.925815 0.330146 -0.184039 2.000000
-60.658901 94.538101 -848.926392 -0.925729 0.357949 -0.122059 2.000000
-56.748299 94.699402 -856.166016 0.800615 0.367416 0.473309 2.000000
-64.859497 94.098000 -841.691711 -0.429892 0.708740 -0.559357 2.000000
-66.989197 94.779503 -840.309021 -0.175877 0.536652 -0.825271 2.000000
-64.095901 93.405296 -843.313416 -0.857536 0.431069 -0.280732 2.000000
-60.219700 93.607399 -850.533325 -0.868069 0.300544 -0.395132 2.000000
-59.295101 93.675797 -852.287109 -0.525194 0.850895 0.012214 2.000000
-63.498901 92.770203 -844.928284 0.652224 0.712527 0.258668 2.000000
-62.689602 92.906502 -846.577515 -0.459377 0.887950 -0.022768 2.000000
-61.826302 92.996597 -848.250916 0.732175 0.265235 0.627352 2.000000
-58.720501 93.155098 -854.013123 -0.685506 0.531309 -0.497788 2.000000
-57.900700 93.308800 -855.708008 0.903714 0.319912 0.284530 2.000000
-66.625702 93.133202 -841.284424 -0.492212 0.009388 -0.870425 2.000000
-65.781799 92.183403 -842.619324 -0.759549 0.517800 -0.393659 2.000000
-61.640900 92.189003 -849.933716 -0.576984 0.709244 -0.405046 2.000000
-60.529400 91.849701 -851.371826 -0.722656 0.506690 -0.470142 2.000000
-64.993698 91.121101 -843.983887 0.625770 0.665607 0.406668 2.000000
-64.088097 91.390701 -845.987427 -0.845199 0.210166 -0.491395 2.000000
-63.067600 91.283997 -847.616272 -0.273709 0.916707 -0.291087 2.000000
-59.943901 91.248497 -853.047974 -0.488035 0.835971 -0.250945 2.000000
-59.181801 91.502098 -854.775024 0.857216 0.306259 0.413988 2.000000
-58.395599 91.929901 -856.811218 -0.056058 0.981609 0.182486 2.000000
-67.489502 91.147499 -841.517822 -0.430879 0.889139 -0.154194 2.000000
-62.684399 90.748497 -849.329773 -0.652132 0.671745 -0.351400 2.000000
-66.916801 90.216904 -843.052612 -0.469846 0.446927 -0.761249 2.000000
-65.314201 89.770798 -845.178589 0.657856 0.693242 0.294347 2.000000
-64.384300 89.773903 -846.809387 -0.887714 0.108671 -0.447385 2.000000
-62.286499 90.156403 -851.057129 -0.890586 0.129256 -0.436061 2.000000
-60.196098 89.772797 -854.130676 -0.114740 0.993323 -0.012020 2.000000
-59.430599 90.101501 -855.967407 0.895265 0.258961 0.362545 2.000000
-58.747799 90.827301 -858.261475 -0.312520 0.926248 -0.210704 2.000000
-63.887699 89.146301 -848.490417 -0.912546 0.016972 -0.408622 2.000000
-61.715199 89.375000 -852.628174 -0.807378 0.163881 -0.566819 2.000000
-68.466003 89.288300 -842.291321 0.182166 0.174414 -0.967675 2.000000
-66.908501 88.701500 -844.123718 -0.509237 0.505898 -0.696236 2.000000
-63.303200 88.522697 -850.138916 -0.897800 0.409397 -0.162322 2.000000
-59.713001 89.369400 -857.670410 0.085081 0.922384 0.376787 2.000000
-66.167702 87.808296 -845.613892 -0.515125 0.849884 -0.111105 2.000000
-65.399399 88.034599 -847.289307 0.744990 0.594390 0.302803 2.000000
-61.615002 88.164803 -854.068420 -0.793152 0.265431 -0.548139 2.000000
-60.680500 88.181396 -855.719116 0.696231 0.597006 0.398555 2.000000
-64.761200 87.517303 -848.991089 -0.922711 0.383037 -0.043437 2.000000
-63.237701 87.617500 -851.787781 -0.795266 0.459738 -0.395213 2.000000
-59.941700 88.901299 -859.432007 0.825884 0.528869 0.195484 2.000000
-69.020699 87.694099 -843.130920 0.550553 0.012295 0.834710 2.000000
-67.577499 87.065399 -844.698730 -0.576061 0.459179 -0.676246 2.000000
-66.488602 86.515404 -846.907288 0.874639 0.264356 0.406352 2.000000
-64.449600 86.595001 -850.558289 -0.460300 0.450472 -0.764983 2.000000
-62.948502 86.811600 -853.481079 -0.693051 0.529391 -0.489311 2.000000
-61.883099 86.713097 -855.180725 0.402502 0.910780 -0.092040 2.000000
-60.995998 86.951897 -857.072571 0.948761 0.213710 0.232766 2.000000
-66.095200 85.861504 -848.641174 0.201711 0.951695 0.231493 2.000000
-63.890202 85.547401 -851.989502 -0.963809 0.222418 -0.146978 2.000000
-69.295097 86.095398 -844.162476 0.513937 0.832305 0.207697 2.000000
-67.960999 85.546600 -845.654907 -0.308006 0.691803 -0.653101 2.000000
-65.290298 84.996201 -850.103088 -0.626727 0.319031 -0.710938 2.000000
-67.234703 84.677299 -847.115173 -0.250482 0.958652 -0.135077 2.000000
-63.530499 84.864700 -853.730713 -0.906652 0.295360 -0.301238 2.000000
-62.729401 85.098701 -855.445618 -0.688417 0.530969 -0.494119 2.000000
-61.920601 85.319298 -857.153809 -0.627930 0.696432 -0.347400 2.000000
-69.406799 84.467400 -845.288879 -0.237292 0.497548 -0.834349 2.000000
-66.899101 83.982697 -848.848511 -0.856401 0.433562 -0.280360 2.000000
-65.175797 83.822197 -851.545898 -0.950403 0.310105 -0.023854 2.000000
-64.668602 83.375198 -853.249878 -0.767656 0.412350 -0.490583 2.000000
-63.694302 83.362602 -854.884827 -0.177084 0.972049 0.154152 2.000000
-62.966202 83.716698 -856.633301 -0.794495 0.607231 0.006885 2.000000
-69.267197 83.300003 -846.729980 -0.619249 0.049597 -0.783627 2.000000
-66.681702 82.557701 -850.038513 0.538506 0.748016 0.387921 2.000000
-68.377197 82.369301 -848.091980 -0.422289 0.750919 -0.507733 2.000000
-66.042900 82.214996 -851.818481 -0.659730 0.012500 -0.751398 2.000000
-65.050003 81.884300 -854.271912 -0.725118 0.594760 -0.347079 2.000000
-64.068802 82.021400 -856.125122 0.940631 0.001253 0.339429 2.000000
-68.090401 81.132599 -849.443481 0.735959 0.423135 0.528508 2.000000
-69.994102 81.213303 -847.793884 -0.336584 0.606502 -0.720323 2.000000
-67.501297 80.640297 -851.187500 -0.798218 0.569284 -0.196884 2.000000
-66.520103 80.620300 -852.817383 -0.733281 0.569967 -0.370724 2.000000
-66.020599 80.136398 -854.520874 -0.910149 0.381950 -0.160447 2.000000
-65.257301 80.449898 -856.260315 -0.834186 0.470686 -0.287382 2.000000
-70.042000 79.894203 -849.065979 -0.228890 0.602588 -0.764524 2.000000
-68.856300 79.500801 -850.511719 -0.863059 0.237303 -0.445889 2.000000
-68.330101 78.791100 -852.154907 -0.375612 0.595403 -0.710219 2.000000
-67.335098 78.749802 -853.782593 -0.524878 0.821748 -0.221887 2.000000
-66.913101 78.302696 -855.543579 -0.635912 0.694461 -0.336659 2.000000
-70.056900 77.797699 -851.187988 -0.861389 0.423810 -0.279990 2.000000
-69.530899 76.959000 -852.768616 -0.698890 0.548770 -0.458699 2.000000
-68.486000 76.837402 -854.373901 -0.886715 0.314641 -0.338728 2.000000
-68.043800 76.165001 -856.038574 -0.757250 0.382696 -0.529261 2.000000
-69.794197 75.481796 -853.845520 -0.716186 0.605251 -0.347489 2.000000
-69.349899 74.941498 -855.570984 -0.791288 0.448235 -0.415871 2.000000
-70.581497 73.609596 -854.662781 -0.939536 0.001254 -0.342448 2.000000
-69.376602 94.011398 -840.054382 0.376091 0.915760 0.141209 2.000000
-59.980701 108.964600 -827.927490 0.449352 0.885946 -0.114819 2.000000
-59.428001 109.734200 -825.854614 0.684002 0.687161 0.244850 2.000000
-58.230701 109.681099 -827.251099 -0.261782 0.951813 -0.159754 2.000000
-57.224098 109.961899 -828.755676 -0.326727 0.944584 -0.031783 2.000000
-56.174999 110.220299 -832.430725 -0.276364 0.957635 0.080981 2.000000
-44.836800 107.094597 -850.990601 0.061234 0.966000 -0.251185 2.000000
-56.561699 110.899101 -826.806396 -0.694319 0.437904 -0.571106 2.000000
-55.579399 110.740402 -829.131226 0.698400 0.676427 0.233846 2.000000
-54.947300 111.907303 -826.930481 0.133255 0.841995 0.522769 2.000000
-54.104900 111.829597 -829.111023 0.868312 0.401346 0.291472 2.000000
-52.640202 112.820198 -829.694702 0.727217 0.420500 0.542527 2.000000
-51.283501 113.269203 -830.940613 0.303932 0.946304 -0.110159 2.000000
-49.473801 114.818001 -830.427490 -0.291468 0.801931 -0.521491 2.000000
-40.096600 120.892601 -827.956299 -0.226066 0.888009 -0.400417 2.000000
-36.865898 119.595901 -832.659180 -0.551683 0.622541 -0.555057 2.000000
-40.258701 115.102600 -833.559692 0.939942 0.315117 -0.131186 2.000000
-38.649399 114.045998 -833.495117 0.427897 0.731886 -0.530328 2.000000
-51.897301 115.591797 -825.948425 0.683808 0.670996 0.286655 2.000000
-50.864799 115.265099 -827.495789 -0.230926 0.972759 0.020341 2.000000
-61.020302 105.246002 -832.843079 -0.537319 0.497146 -0.681274 2.000000
-51.756001 114.314003 -829.109985 0.900611 0.418791 0.116253 2.000000
-53.010601 114.107201 -826.190674 -0.820837 0.322978 0.471075 2.000000
-49.665100 116.798798 -826.557495 -0.657280 0.627328 -0.417664 2.000000
-49.210800 116.319702 -828.314209 -0.608071 0.793678 0.018007 2.000000
-53.538399 110.486504 -835.072510 0.302146 0.353255 -0.885392 2.000000
-35.849800 118.461304 -841.226074 0.478154 0.602306 0.639216 2.000000
-60.794899 102.887299 -836.655212 -0.622937 0.481894 -0.616220 2.000000
-63.729099 98.640404 -836.753174 -0.701745 0.419720 0.575664 2.000000
-63.731499 94.531097 -846.644714 -0.828845 0.152721 0.538230 2.000000
-64.968102 91.490601 -847.590210 -0.856594 0.150819 0.493457 2.000000
-61.464298 101.374603 -837.499084 -0.895265 0.258961 0.362545 2.000000
-67.931198 91.713303 -843.361877 0.167961 0.603751 -0.779278 2.000000
-60.889599 104.132103 -834.291077 -0.875526 0.250794 0.412984 2.000000
-62.123699 102.072403 -835.653809 0.273909 0.320781 -0.906683 2.000000
-62.307201 102.965698 -834.065125 -0.418730 0.716641 -0.557755 2.000000
-63.775398 102.732903 -832.645325 -0.918439 0.352375 0.179725 2.000000
-68.884300 95.435501 -838.973389 -0.348380 0.685311 -0.639515 2.000000
-63.596699 101.680603 -834.445984 -0.902233 0.345880 0.257571 2.000000
-63.188400 100.574203 -835.916016 -0.922118 0.386275 -0.022110 2.000000
-66.043999 94.924103 -842.848022 0.678824 0.481044 -0.554792 2.000000
-59.734001 100.850998 -846.274902 -0.048577 0.850796 -0.523246 2.000000
-32.635700 118.928001 -836.395813 0.979329 0.161374 -0.121954 2.000000
-38.090199 115.371498 -831.821411 0.961533 0.174944 0.211774 2.000000
-50.969799 112.296402 -837.348877 0.168762 0.764750 0.621834 2.000000
-51.902901 110.831398 -830.602722 0.855022 0.313869 0.412823 2.000000
-63.480099 88.618797 -853.763306 -0.376432 0.873262 0.309375 2.000000
-33.965302 117.175697 -833.625977 0.432962 0.832862 -0.344796 2.000000
-54.074200 107.757401 -842.377014 0.817508 0.497409 -0.290286 2.000000
-51.762100 110.042603 -840.730286 -0.691833 0.616241 0.376318 2.000000
-42.898399 115.550301 -835.978394 0.395890 0.252473 -0.882909 2.000000
-62.678501 99.422699 -838.184387 -0.627537 0.778585 -0.001373 2.000000
-65.367798 97.990402 -835.642517 -0.680136 0.721991 0.127058 2.000000
-64.801300 99.421997 -834.642700 -0.640126 0.439564 -0.630097 2.000000
-66.968903 97.879700 -834.460388 -0.198456 0.927537 0.316686 2.000000
-66.275497 99.342796 -833.547729 -0.333314 0.086316 -0.938856 2.000000
-65.204697 100.832901 -833.492188 -0.623014 0.626373 0.468520 2.000000
-53.390701 113.213600 -827.979919 -0.481451 0.782966 -0.393915 2.000000
-55.139999 113.875000 -827.068970 -0.818255 0.093803 -0.567150 2.000000
-56.062401 111.902000 -825.303589 -0.602994 0.119419 -0.788757 2.000000
-54.854099 113.284103 -825.202271 -0.297230 0.909261 -0.291374 2.000000
-61.111000 108.989304 -826.168213 -0.056698 0.978348 -0.199047 2.000000
-52.697601 116.073997 -824.368225 -0.386582 0.490102 0.781252 2.000000
-31.666901 118.042099 -831.862793 0.850604 0.498528 0.167162 2.000000
-30.126600 117.428596 -833.050781 0.348503 0.756982 -0.552742 2.000000
-31.380600 118.751404 -829.950073 0.891323 0.319079 0.322075 2.000000
-28.572800 117.210800 -834.982117 0.811095 0.553364 -0.189508 2.000000
-29.964500 118.540497 -831.313110 0.171602 0.983458 -0.057990 2.000000
-30.193100 118.466202 -827.940918 -0.652331 0.442117 0.615627 2.000000
-27.939800 117.233398 -833.228027 0.141894 0.944606 -0.295949 2.000000
-26.776400 116.692398 -834.919312 -0.087072 0.977418 -0.192540 2.000000
-28.213800 118.003403 -831.243774 0.100138 0.991018 -0.088628 2.000000
-29.160801 118.622002 -829.522827 0.114660 0.983661 -0.138799 2.000000
-32.022999 120.966003 -825.125427 0.819551 0.189360 0.540813 2.000000
-26.181101 117.767303 -833.121216 -0.302800 0.820541 -0.484794 2.000000
-33.904598 123.657402 -821.536377 0.377417 0.887602 -0.264043 2.000000
-32.951199 123.083900 -823.078186 -0.178304 0.270858 -0.945962 2.000000
-30.359900 120.317703 -825.793518 -0.054998 0.910817 -0.409130 2.000000
-28.566999 117.981201 -827.155823 -0.170167 0.882832 0.437780 2.000000
-34.597401 127.013000 -815.422119 -0.966993 0.244570 0.071490 2.000000
-33.674999 126.539398 -817.046814 0.001294 0.912042 -0.410095 2.000000
-32.686001 125.739700 -818.424927 0.036493 0.885294 -0.463597 2.000000
-31.697500 124.868797 -819.713013 0.192728 0.856072 -0.479580 2.000000
-30.664000 123.994598 -821.105286 0.143641 0.900243 -0.411011 2.000000
-29.686001 123.179604 -822.438171 0.120865 0.885870 -0.447912 2.000000
-28.634800 122.038200 -823.539917 -0.323332 0.878918 -0.350656 2.000000
-27.576500 120.725998 -824.446228 0.452147 0.562264 -0.692403 2.000000
-26.473400 119.157097 -825.140320 -0.499232 0.579915 -0.643790 2.000000
-29.419701 125.440300 -816.933777 -0.161971 0.916895 -0.364786 2.000000
-28.503099 124.845100 -818.425720 -0.327683 0.940597 -0.088886 2.000000
-27.474501 123.887100 -819.729614 -0.880826 0.309725 0.358072 2.000000
-26.508101 123.176201 -821.196411 -0.062107 0.931612 -0.358109 2.000000
-25.488501 122.185097 -822.436523 0.001294 0.912042 -0.410095 2.000000
-24.462799 120.940201 -823.368408 0.016013 0.289457 -0.957057 2.000000
-23.615499 120.629303 -825.052124 -0.053716 0.963140 0.263583 2.000000
-23.145800 121.087997 -826.789185 -0.176534 0.963746 -0.200072 2.000000
-22.274599 120.728699 -828.469727 -0.192835 0.915607 -0.352816 2.000000
-21.487000 120.560501 -830.188782 -0.123052 0.992177 0.021063 2.000000
-28.926500 127.293198 -811.872192 0.054240 0.977529 -0.203702 2.000000
-28.015301 126.736900 -813.429321 0.212221 0.939044 -0.270478 2.000000
-26.972401 125.960098 -815.029480 0.403882 0.855735 -0.323415 2.000000
-26.017300 125.234596 -816.476624 0.126441 0.975224 -0.181524 2.000000
-25.116699 124.650497 -817.970886 0.427166 0.873818 -0.232319 2.000000
-24.086399 123.687798 -819.298096 0.339345 0.925867 -0.166181 2.000000
-23.029400 122.509201 -820.411377 0.226847 0.838876 -0.494800 2.000000
-22.002899 121.589500 -821.784790 0.287136 0.839679 -0.460970 2.000000
-21.206900 121.379700 -823.503784 -0.087055 0.995076 -0.047385 2.000000
-20.472300 121.311798 -825.253479 -0.291638 0.931268 0.218376 2.000000
-19.858900 121.515602 -827.052612 0.055997 0.995877 -0.071369 2.000000
-19.033001 121.164200 -828.662415 0.089548 0.995814 0.018341 2.000000
-18.227200 120.863899 -830.288086 0.562999 0.805802 0.183620 2.000000
-26.294600 127.021500 -810.015686 -0.245113 0.902661 0.353726 2.000000
-25.458599 126.669800 -811.669983 0.121954 0.979329 -0.161374 2.000000
-24.522100 125.974602 -813.127319 0.066016 0.996733 -0.046536 2.000000
-23.607800 125.345001 -814.614075 0.189942 0.952402 -0.238437 2.000000
-22.616301 124.542397 -816.069214 0.173269 0.952308 -0.251173 2.000000
-21.615000 123.731102 -817.537598 0.230643 0.860765 -0.453748 2.000000
-20.652800 122.939796 -818.932983 -0.134538 0.974459 -0.179803 2.000000
-19.677900 122.046898 -820.227173 0.170873 0.919327 -0.354456 2.000000
-18.850500 121.760597 -821.945801 0.915227 0.109054 0.387901 2.000000
-18.048700 121.537300 -823.682373 0.143606 0.983523 -0.109817 2.000000
-17.198099 121.125198 -825.294312 -0.037585 0.989745 0.137813 2.000000
-16.435499 120.916397 -826.950623 0.961753 0.182878 0.203928 2.000000
-15.553600 120.448601 -828.568726 0.035628 0.987247 -0.155155 2.000000
-14.678000 119.922302 -830.093384 0.041618 0.997764 -0.052289 2.000000
-24.692200 127.947197 -807.798218 -0.006824 0.820301 0.571891 2.000000
-23.772200 127.337997 -809.333923 -0.295618 0.904503 -0.307384 2.000000
-22.794901 126.539200 -810.764587 0.274820 0.884529 -0.376938 2.000000
-21.811001 125.650002 -812.092407 0.258648 0.917551 -0.301997 2.000000
-20.802500 124.804703 -813.541321 -0.030436 0.967876 -0.249578 2.000000
-19.837500 124.078003 -815.035828 0.373527 0.926610 -0.043251 2.000000
-18.893200 123.412697 -816.559082 0.215992 0.937822 -0.271731 2.000000
-17.972000 122.726501 -817.995789 0.363862 0.910375 -0.197032 2.000000
-16.987200 121.818199 -819.300781 -0.140620 0.986701 0.081536 2.000000
-16.295401 121.768097 -820.995178 -0.018162 0.996789 -0.077991 2.000000
-15.397700 121.250504 -822.595276 0.875977 0.457600 0.152533 2.000000
-14.547800 120.849503 -824.228271 0.142854 0.951914 -0.271022 2.000000
-13.546600 119.866997 -825.476685 0.327870 0.937736 -0.114687 2.000000
-12.669200 119.341003 -827.013977 0.334305 0.942363 0.013877 2.000000
-11.794900 118.831299 -828.564819 0.290129 0.956808 -0.018519 2.000000
-10.933200 118.440498 -830.241211 -0.060687 0.997611 0.033005 2.000000
-23.231501 129.411301 -806.886597 -0.267383 0.586976 0.764176 2.000000
-22.218800 128.511002 -808.280518 -0.035099 0.793230 -0.607909 2.000000
-21.231001 127.460098 -809.411072 -0.229317 0.753472 -0.616193 2.000000
-20.117599 125.968903 -810.278687 -0.375601 0.521939 -0.765835 2.000000
-19.170401 124.369698 -810.577820 0.382285 0.921509 -0.068409 2.000000
-18.335800 124.049896 -812.286987 0.110940 0.967858 0.225706 2.000000
-17.362600 123.314400 -813.798523 0.546835 0.837213 -0.006785 2.000000
-16.446100 122.637604 -815.243225 0.374963 0.924731 -0.065385 2.000000
-15.587200 122.195297 -816.851685 0.135990 0.981332 -0.135990 2.000000
-14.738200 121.783600 -818.475525 0.175239 0.974530 0.139939 2.000000
-13.841200 121.267899 -820.083984 -0.036921 0.992389 -0.117476 2.000000
-13.008400 120.907700 -821.734924 0.192865 0.966914 0.166977 2.000000
-11.979500 119.853401 -822.965881 0.406187 0.890092 -0.206759 2.000000
-10.941800 118.709999 -824.101074 0.209870 0.951863 -0.223410 2.000000
-9.906000 117.587097 -825.258789 0.097661 0.937814 -0.333118 2.000000
-22.001801 130.713699 -806.479370 -0.228387 0.894394 -0.384575 2.000000
-20.446100 129.034302 -808.231873 -0.366383 0.838122 -0.404123 2.000000
-19.388700 127.846298 -809.361511 0.429837 0.876035 -0.218637 2.000000
-16.847900 123.370399 -809.935425 0.284249 0.958573 0.018458 2.000000
-15.953900 122.887604 -811.579102 0.504511 0.862728 -0.034181 2.000000
-15.143800 122.564697 -813.219482 0.012182 0.991203 -0.131791 2.000000
-14.262500 122.076401 -814.823608 0.318080 0.943680 -0.091068 2.000000
-13.344500 121.420403 -816.299316 -0.836387 0.545956 -0.048871 2.000000
-12.633300 121.348999 -818.019409 0.069166 0.995776 -0.060383 2.000000
-11.672500 120.610199 -819.495483 -0.121452 0.984840 -0.123857 2.000000
-10.716600 119.807503 -820.874573 0.105026 0.992667 -0.059854 2.000000
-9.704000 118.800697 -822.129028 0.830715 0.532433 -0.162564 2.000000
-8.673700 117.418503 -822.933105 0.538717 0.832296 -0.130643 2.000000
-7.853900 117.052902 -824.541992 0.574986 0.353462 -0.737872 2.000000
-20.236000 130.885803 -807.154785 -0.901220 0.083930 -0.425156 2.000000
-15.114000 122.524498 -809.262817 0.206986 0.976826 0.054470 2.000000
-14.072100 122.386101 -811.745483 0.085232 0.962993 0.255696 2.000000
-13.153300 121.742203 -813.248901 0.349277 0.935330 -0.056251 2.000000
-12.233100 121.076698 -814.727722 -0.027842 0.999225 -0.027842 2.000000
-11.522900 121.014503 -816.462402 -0.015313 0.999444 0.029606 2.000000
-10.019000 119.980499 -818.949280 0.272576 0.961960 0.018335 2.000000
-9.058300 119.077202 -820.218628 -0.859712 0.362715 -0.359628 2.000000
-7.054700 116.766197 -822.305115 0.045629 0.993812 0.101273 2.000000
-17.096500 124.218697 -803.242188 0.481854 0.862651 -0.153783 2.000000
-16.216400 123.808899 -804.969971 -0.669830 0.162521 -0.724510 2.000000
-13.450100 122.167900 -809.937927 0.294379 0.920473 0.257043 2.000000
-7.436000 118.112999 -820.099121 0.960519 0.262892 -0.091051 2.000000
-5.428100 115.593697 -821.962585 -0.848620 0.455769 0.268551 2.000000
-14.808400 122.740700 -804.422485 0.285113 0.952567 0.106425 2.000000
-13.083600 122.136803 -808.111023 -0.486483 0.621150 -0.614416 2.000000
-11.866200 121.253502 -810.114685 -0.775551 0.623654 0.097857 2.000000
-10.983200 120.647301 -811.613525 0.342142 0.935898 0.083871 2.000000
-10.151200 120.227997 -813.224426 0.216457 0.965633 0.143873 2.000000
-9.395300 120.049202 -814.953491 0.436787 0.896851 0.069831 2.000000
-8.525900 119.594803 -816.616028 0.389255 0.921108 -0.006423 2.000000
-7.673700 119.098000 -818.177979 0.262323 0.865817 -0.426085 2.000000
-5.855000 117.038101 -820.200195 0.270420 0.857094 -0.438478 2.000000
-15.777300 123.972900 -801.054321 0.356975 0.900518 -0.248267 2.000000
-15.097900 123.944199 -802.795776 0.866187 0.329611 0.375603 2.000000
-13.337800 121.619400 -804.358582 -0.798153 0.487849 -0.353491 2.000000
-6.194100 117.957703 -818.267517 0.959667 0.265932 -0.091213 2.000000
-3.593300 115.395599 -821.720825 0.221255 0.962264 -0.158413 2.000000
-13.670700 122.427498 -802.517090 0.773679 0.374675 0.510920 2.000000
-10.722100 120.364502 -807.573425 -0.191386 0.908002 0.372698 2.000000
-9.956100 120.120399 -809.267029 0.532720 0.842409 0.080974 2.000000
-9.223500 119.951103 -810.969727 0.410526 0.910647 0.046803 2.000000
-8.432100 119.746696 -812.781616 0.191464 0.413621 0.890089 2.000000
-7.516700 119.150200 -814.408630 0.904547 0.411158 0.112894 2.000000
-6.682200 118.724998 -816.046082 0.760990 0.640291 -0.104507 2.000000
-4.054600 116.488098 -820.033081 0.858000 0.394216 -0.329286 2.000000
-10.287000 121.451897 -817.832825 0.889058 0.397931 0.226333 2.000000
-10.958400 118.423103 -826.554077 0.891698 0.303207 0.336067 2.000000
-9.103500 117.971901 -830.455017 -0.137535 0.982218 0.127798 2.000000
-13.058100 119.239304 -830.826782 0.590006 0.807304 -0.012378 2.000000
-26.705000 120.229897 -827.686890 -0.933409 0.345160 0.098042 2.000000
-32.803200 127.768402 -815.193115 0.985576 0.026513 -0.167144 2.000000
-34.844101 125.459000 -817.992798 0.454093 0.867987 -0.200992 2.000000
-27.997999 128.000000 -809.669189 -0.428441 0.661833 0.615155 2.000000
-31.350300 127.342201 -816.254822 0.051705 0.995603 -0.078108 2.000000
-34.487202 124.817200 -819.669800 -0.394900 0.888895 -0.232207 2.000000
-29.562300 126.448700 -814.424316 -0.820541 0.302800 0.484794 2.000000
-30.927500 126.158096 -817.719727 0.151197 0.885580 -0.439190 2.000000
-14.282200 124.011902 -799.054810 -0.827604 0.172106 0.534276 2.000000
-30.948601 122.311600 -823.473022 0.047696 0.942321 -0.331295 2.000000
-12.462100 123.994598 -797.926880 0.698695 0.704654 0.123650 2.000000
-13.882600 123.174103 -800.682007 0.480392 0.813336 -0.328188 2.000000
-12.208700 122.928299 -799.464111 -0.643490 0.741780 0.188900 2.000000
-16.421801 123.643501 -806.889771 0.744111 0.278842 -0.607080 2.000000
-12.157100 121.736397 -800.919128 0.644111 0.573477 -0.506207 2.000000
-14.743200 122.500999 -806.266174 -0.776970 0.526023 0.345856 2.000000
-12.328200 120.949303 -802.638916 0.509183 0.826077 -0.241516 2.000000
-28.410200 119.530701 -825.615112 0.650911 0.519720 -0.553359 2.000000
-10.178100 119.316399 -800.511475 0.913206 0.334311 -0.233005 2.000000
-8.329000 118.593597 -798.359619 -0.611718 0.665056 0.428370 2.000000
-10.640000 119.662498 -802.330078 0.160692 0.980101 0.116533 2.000000
-11.686200 120.579903 -804.364014 0.373453 0.924932 0.070943 2.000000
-12.375700 121.618797 -805.940979 -0.780203 0.211659 0.588628 2.000000
-6.745100 117.359703 -797.299683 -0.630765 0.731940 0.257681 2.000000
-25.273100 120.529701 -825.994995 0.399521 0.916701 0.006465 2.000000
-7.317400 117.056999 -799.029419 0.479241 0.872246 0.097545 2.000000
-8.175100 117.650299 -800.593811 0.600663 0.794612 -0.088290 2.000000
-8.957700 118.374603 -802.119324 -0.058195 0.902702 0.426313 2.000000
-9.933100 119.259499 -804.011108 0.276988 0.957218 0.083740 2.000000
-27.267900 119.131104 -829.120728 0.013324 0.965401 -0.260428 2.000000
-4.967800 115.763802 -796.288818 0.320569 0.937152 0.137776 2.000000
-10.087600 119.706902 -805.798279 0.254269 0.954509 0.155757 2.000000
-4.965300 116.455002 -798.203430 0.647167 0.502605 -0.573205 2.000000
-6.674600 116.269897 -800.564575 0.594696 0.802769 0.043583 2.000000
-7.408200 119.697304 -803.430908 -0.736373 0.464990 0.491467 2.000000
-24.293100 120.554802 -828.176086 -0.712329 0.621463 0.326146 2.000000
-2.650000 113.710999 -795.162476 0.133856 0.905994 0.401568 2.000000
-3.644100 113.939301 -796.704773 -0.969364 0.097062 0.225639 2.000000
-4.563000 114.369003 -798.244629 0.604296 0.794828 0.055453 2.000000
-6.699500 116.558601 -802.447571 -0.238520 0.915050 0.325255 2.000000
-7.375800 117.553200 -803.935730 0.787829 0.586681 0.187433 2.000000
-7.978900 118.636002 -805.365112 -0.004157 0.680286 0.732935 2.000000
-9.090900 119.212402 -807.258301 0.361455 0.926142 0.107754 2.000000
-25.347099 119.328796 -830.586304 0.519885 0.647753 -0.556899 2.000000
-4.554600 114.664597 -800.142212 0.621069 0.717859 0.314567 2.000000
-5.325900 115.536301 -801.691284 0.211633 0.968379 0.132110 2.000000
-0.339800 112.526604 -794.486084 -0.670750 0.470026 0.573733 2.000000
-1.423500 112.614197 -796.066528 0.576932 0.798013 -0.174140 2.000000
-2.490100 113.008003 -797.779785 0.574273 0.814866 0.078766 2.000000
-5.628600 116.302299 -803.916382 0.559053 0.817077 0.140875 2.000000
-6.504600 116.894302 -805.461304 -0.496472 0.792106 0.355082 2.000000
-7.117600 117.984200 -806.888672 0.175255 0.936992 0.302211 2.000000
-8.170100 118.865799 -808.832214 0.065800 0.982213 0.175865 2.000000
-2.817800 113.519997 -799.551819 0.687737 0.722485 -0.070945 2.000000
1.493900 111.375298 -793.286499 0.753738 0.247050 -0.608970 2.000000
-3.223600 114.245697 -801.386230 -0.165749 0.731423 0.661474 2.000000
-3.953200 115.131699 -802.862915 0.605456 0.795782 0.012413 2.000000
-6.674300 117.796097 -808.663208 0.861414 0.504004 -0.062826 2.000000
-7.743300 118.754204 -810.650024 0.053473 0.996348 -0.066569 2.000000
1.525100 112.657501 -794.950928 -0.783099 0.280017 0.555289 2.000000
0.427900 111.415100 -795.866516 0.294576 0.953193 -0.068177 2.000000
-0.610500 111.756104 -797.495789 0.115221 0.991356 0.062744 2.000000
-4.810600 116.164902 -805.609680 0.215223 0.880187 0.423024 2.000000
-5.582800 116.807602 -807.214417 0.487302 0.863262 0.131586 2.000000
-1.434900 112.065102 -799.101379 0.550353 0.786895 0.279119 2.000000
2.874700 110.264900 -792.549316 -0.794533 0.272187 0.542800 2.000000
2.320200 110.073898 -794.342285 0.357982 0.932327 -0.051140 2.000000
-1.437900 112.887802 -801.010620 0.911166 0.014380 0.411789 2.000000
-2.576100 113.950798 -803.135315 0.914455 0.393476 0.094599 2.000000
-3.334500 114.917603 -804.679871 0.768466 0.636319 -0.067510 2.000000
4.940100 108.338402 -791.351318 -0.720546 0.637834 0.271994 2.000000
2.043900 110.329399 -796.377930 0.877087 0.360259 -0.317697 2.000000
1.151900 111.009003 -797.958923 0.501752 0.861551 -0.077301 2.000000
-3.620100 115.528900 -806.853027 0.554433 0.830951 -0.046086 2.000000
-4.575900 116.915901 -808.872314 0.366766 0.892416 0.262825 2.000000
-5.485000 117.449699 -810.405273 0.423392 0.904581 0.049732 2.000000
-6.251100 118.337502 -811.913208 0.995038 0.095026 0.029491 2.000000
5.143500 108.373199 -793.218323 -0.803228 0.370351 0.466546 2.000000
4.212400 108.884598 -794.756287 0.226359 0.932148 0.282597 2.000000
1.299700 111.090202 -799.862793 -0.005083 0.999279 -0.037613 2.000000
0.358200 111.616501 -801.422424 0.372012 0.919657 0.125848 2.000000
-0.441100 112.657501 -803.036011 0.849310 0.411457 0.330719 2.000000
-1.290800 113.435097 -804.590881 0.565760 0.822539 0.057846 2.000000
-2.190800 114.065903 -806.144226 0.908666 0.385365 0.160687 2.000000
7.086800 107.445000 -791.982422 -0.797477 0.261648 0.543663 2.000000
4.447200 109.463898 -796.574280 -0.328734 0.774529 0.540406 2.000000
3.403000 109.682899 -798.111572 0.451504 0.887631 0.090860 2.000000
-2.069100 114.566101 -807.967285 0.634748 0.680673 0.365759 2.000000
-2.888500 115.407097 -809.495972 0.697765 0.703767 0.133551 2.000000
-3.696400 116.187103 -810.979614 0.885315 0.381989 -0.265145 2.000000
-4.363800 117.236298 -812.400330 0.460409 0.883034 -0.090962 2.000000
-5.163400 118.041702 -813.884827 0.418100 0.908287 -0.014417 2.000000
-16.450300 120.292198 -830.443420 -0.217492 0.975743 0.024958 2.000000
5.960100 108.228699 -794.858826 -0.067703 0.930587 0.359756 2.000000
2.919800 110.015999 -799.869812 0.319954 0.947413 -0.006225 2.000000
0.138300 112.279701 -804.755920 0.535391 0.837183 -0.111721 2.000000
2.200200 110.895103 -801.461792 0.865416 0.223478 -0.448456 2.000000
1.441300 111.857101 -802.960327 0.338271 0.899594 -0.276230 2.000000
-0.184300 113.388901 -806.185913 0.172660 0.925063 -0.338301 2.000000
-5.089300 117.782501 -815.701172 0.431190 0.899339 -0.072549 2.000000
-13.745800 119.860703 -828.469421 0.152465 0.988200 -0.014682 2.000000
6.749100 109.552902 -797.362793 -0.775051 0.273083 0.569844 2.000000
5.557700 109.006599 -798.718506 0.084921 0.984369 0.154294 2.000000
4.823500 110.103302 -800.238403 -0.275245 0.606176 -0.746185 2.000000
2.871900 110.724800 -803.182983 -0.041030 0.998399 0.038926 2.000000
1.847500 111.044197 -804.725525 0.867256 0.425303 -0.258814 2.000000
0.175500 113.152901 -808.000671 0.933913 0.179012 0.309454 2.000000
-0.636900 114.031601 -809.522522 -0.491816 0.788518 0.369265 2.000000
-1.719400 115.300102 -811.596802 0.488782 0.845911 -0.213369 2.000000
-2.543100 116.396202 -813.237793 -0.194671 0.774086 0.602407 2.000000
-3.485700 117.107903 -814.856628 0.794937 0.579103 -0.180875 2.000000
4.433400 110.097099 -802.111084 0.497257 0.866412 -0.045456 2.000000
1.806000 111.839798 -806.494995 0.532843 0.809362 0.247003 2.000000
-4.243300 117.114601 -817.186584 0.117926 0.988944 -0.089904 2.000000
-0.019700 114.161201 -811.314819 0.840354 0.533990 -0.093055 2.000000
6.665000 109.750099 -801.544800 -0.616632 0.754008 0.226358 2.000000
5.149600 110.214104 -803.807007 0.173094 0.974129 0.145298 2.000000
4.175100 110.764000 -805.379517 0.122031 0.986909 0.105444 2.000000
2.455000 111.865402 -808.216797 0.255901 0.941993 0.217170 2.000000
1.581300 112.505302 -809.695679 0.160034 0.939687 0.302287 2.000000
-0.067300 114.897003 -813.041016 0.297176 0.954222 -0.033855 2.000000
-0.863800 115.982399 -814.624390 -0.329680 0.839043 0.432802 2.000000
4.079100 111.361702 -807.240173 0.914445 0.011707 -0.404541 2.000000
1.698800 113.349503 -811.368774 0.382301 0.897894 0.218248 2.000000
-2.091200 116.841797 -818.094727 -0.266833 0.926067 -0.266833 2.000000
-9.272000 119.045601 -828.783875 -0.759816 0.642696 -0.098088 2.000000
4.146700 112.883698 -809.125610 0.304502 0.835429 0.457534 2.000000
3.398300 112.801201 -810.839600 -0.038195 0.920640 0.388539 2.000000
2.165400 113.994400 -813.046570 0.477670 0.796117 0.371521 2.000000
-2.158000 116.202904 -819.874023 -0.086908 0.968582 -0.233014 2.000000
5.221500 112.153603 -805.988586 -0.768702 0.465138 0.439025 2.000000
-2.247300 116.204300 -815.892029 0.125163 0.476195 -0.870386 2.000000
1.447500 114.467003 -808.434082 -0.483731 0.737979 -0.470523 2.000000
5.722000 112.536797 -810.035278 -0.158727 0.920057 0.358190 2.000000
3.973800 113.270103 -812.546387 -0.017286 0.999527 0.025420 2.000000
-0.307000 116.022003 -820.007813 0.500133 0.486841 -0.716138 2.000000
-1.673900 115.454697 -821.475830 -0.903760 0.393873 0.167575 2.000000
0.213700 115.340302 -821.632690 -0.852162 0.478116 0.212663 2.000000
5.901600 113.890297 -811.309570 -0.314651 0.948968 -0.021311 2.000000
-14.580900 120.666603 -826.901611 0.834433 0.452441 -0.314673 2.000000
-17.962299 121.908699 -827.374817 0.336157 0.459256 -0.822242 2.000000
-3.674300 119.062698 -815.115479 0.596698 0.004115 -0.802456 2.000000
-24.728399 118.790703 -832.601196 0.623450 0.035183 -0.781071 2.000000
-18.464300 125.178802 -813.819214 -0.742529 0.521911 -0.419833 2.000000
-29.233200 124.921600 -822.028198 -0.110940 0.517240 -0.848620 2.000000
-16.193600 125.087799 -809.686584 -0.694015 0.029562 0.719354 2.000000
-17.641399 124.215500 -815.381104 -0.665379 0.018134 0.746285 2.000000
-24.455900 123.614998 -821.150879 0.137659 0.081184 -0.987147 2.000000
-23.900101 126.530502 -817.011108 -0.691541 0.055839 0.720176 2.000000
-18.048401 124.218002 -807.596375 0.581545 0.801669 -0.138321 2.000000
-19.732100 120.068001 -831.010620 0.048907 0.379363 -0.923954 2.000000
-8.224500 119.655602 -799.975586 -0.882410 0.413769 0.223939 2.000000
-23.807400 122.971298 -823.070313 0.563186 0.770592 0.298345 2.000000
-19.412701 122.507202 -829.869080 0.879606 0.349723 -0.322472 2.000000
-23.195801 121.528702 -829.865112 -0.319665 0.374727 0.870284 2.000000
1.272800 115.382301 -814.349915 0.494853 0.679374 0.541822 2.000000
-26.589100 119.112999 -831.939819 -0.577616 0.745885 -0.331684 2.000000
-19.760300 123.287697 -824.245972 0.603474 0.772386 0.198087 2.000000
-23.725300 129.748306 -809.165527 -0.842693 0.530796 -0.090135 2.000000
-17.945601 124.437599 -805.762207 0.434515 0.873509 -0.219497 2.000000
-30.560900 120.474701 -829.726807 -0.676096 0.710132 -0.196485 2.000000
-30.737499 119.379204 -839.360779 0.914609 0.300038 0.271049 2.000000
-30.493000 123.098900 -826.476074 -0.742825 0.656137 -0.133021 2.000000
-30.471100 119.419098 -833.025330 -0.209403 0.848158 0.486599 2.000000
-23.038601 122.458603 -828.101013 -0.715214 0.688449 -0.120441 2.000000
-16.500999 122.646004 -823.202271 -0.647006 0.576423 -0.499119 2.000000
6.540400 106.784897 -790.335205 0.037385 0.937202 -0.346778 2.000000
-27.128000 117.675499 -826.028381 -0.240340 0.801649 0.547354 2.000000
-20.798901 131.835205 -805.624023 -0.440382 0.864118 -0.243648 2.000000
-103.828598 111.037102 -731.384216 0.102165 0.994762 -0.003226 2.000000
-104.073601 112.781303 -732.378784 -0.453859 0.651480 0.607936 2.000000
-104.069901 114.358299 -733.369507 -0.720300 0.397236 -0.568658 2.000000
-102.634598 113.323196 -730.789795 0.132669 0.132669 -0.982241 2.000000
-104.826698 116.492996 -733.837280 0.616476 0.780479 0.103966 2.000000
-105.339203 118.336502 -734.186279 0.804703 0.544221 0.237225 2.000000
-105.892502 120.053299 -734.681824 0.365048 0.187535 0.911905 2.000000
-105.705803 120.394501 -736.554077 0.706045 0.681326 0.193120 2.000000
-106.559303 122.129997 -735.352417 -0.531176 0.060265 0.845116 2.000000
-103.647301 118.923698 -734.692871 0.632726 0.464894 -0.619299 2.000000
-106.744598 123.942596 -736.130005 0.844101 0.273137 -0.461401 2.000000
-106.917099 125.640900 -736.930786 -0.966087 0.162095 0.200998 2.000000
-106.763199 127.790802 -737.618896 -0.273860 0.956563 0.099939 2.000000
-108.444801 131.287598 -741.369385 -0.915283 0.401671 0.030290 2.000000
-105.157303 127.084702 -735.787476 0.560105 0.604101 -0.566873 2.000000
-106.413498 129.176407 -738.765076 -0.796381 0.474611 0.374862 2.000000
-110.060898 135.536896 -748.481873 -0.973394 0.140503 0.181008 2.000000
-107.462402 132.379501 -742.502380 -0.981102 0.098475 -0.166556 2.000000
-99.189301 120.880402 -729.599182 -0.133815 0.980898 0.141181 2.000000
-105.886597 129.450195 -735.930786 0.932768 0.243392 0.265902 2.000000
-105.881203 130.787201 -739.502380 -0.206425 0.947370 0.244703 2.000000
-108.997597 136.640900 -749.585388 -0.831807 0.331779 -0.444993 2.000000
-105.183800 129.920807 -737.607483 -0.360365 0.475681 0.802412 2.000000
-108.566200 135.882797 -747.115601 -0.656873 0.738415 0.152515 2.000000
-106.185097 131.970398 -740.879822 0.975196 0.032307 -0.218971 2.000000
-104.199097 128.881302 -736.433105 0.212287 0.957295 -0.196266 2.000000
-99.192497 122.380402 -730.879272 0.746370 0.613822 0.257206 2.000000
-106.125603 133.430206 -743.180786 0.844010 0.520400 0.129736 2.000000
-98.568497 122.640900 -728.748779 0.533695 0.547164 -0.644811 2.000000
-98.276604 123.785599 -731.793091 0.760372 0.256606 0.596648 2.000000
-104.164200 131.479401 -738.187012 0.882132 0.322288 -0.343472 2.000000
-107.249496 137.018707 -747.761780 -0.190927 0.980726 0.041506 2.000000
-107.602997 137.837006 -749.616882 -0.229139 0.945370 0.231883 2.000000
-104.189903 132.767303 -739.601685 -0.869786 0.429617 0.242696 2.000000
-97.534103 124.212799 -728.755371 -0.691776 0.293724 -0.659675 2.000000
-102.505898 131.219803 -736.482971 -0.750441 0.659992 -0.035331 2.000000
-104.542603 134.375504 -740.855713 0.819667 0.541916 0.185670 2.000000
-104.692703 134.949493 -742.623474 -0.043926 0.992276 0.116010 2.000000
-105.753799 136.860199 -746.029907 -0.662048 0.223813 0.715262 2.000000
-106.422501 138.677795 -750.773804 -0.871681 0.346535 -0.346535 2.000000
-97.570602 125.500603 -730.512207 0.890306 0.453908 0.036367 2.000000
-97.603500 125.954201 -732.299988 -0.865594 0.432039 0.253160 2.000000
-98.482201 127.180099 -733.625122 0.964565 0.255289 -0.066652 2.000000
-105.485703 137.757294 -747.625183 0.501117 0.023087 -0.865072 2.000000
-102.619698 133.544907 -738.518127 -0.207290 0.506876 0.836724 2.000000
-105.502197 138.974396 -749.015320 -0.377984 0.867680 0.322893 2.000000
-96.839203 126.136200 -728.387329 -0.969424 0.219229 0.110248 2.000000
-98.759102 129.124893 -732.726624 0.061319 0.989210 0.133052 2.000000
-98.343803 129.108597 -734.546021 -0.212463 0.814696 0.539564 2.000000
-102.584099 134.767807 -740.009827 -0.949628 0.272666 0.154466 2.000000
-103.152000 135.761795 -741.774902 -0.294685 0.834160 0.466194 2.000000
-103.444199 136.457901 -743.491272 -0.653984 0.755684 0.035312 2.000000
-103.962097 137.493896 -745.667725 -0.262357 0.921833 0.285295 2.000000
-105.016403 139.838593 -751.130005 -0.722666 0.605741 -0.332914 2.000000
-96.360100 126.826897 -730.053772 0.701544 0.712614 0.004151 2.000000
-103.219299 135.771896 -738.066528 0.710460 0.686223 0.156029 2.000000
-96.417198 127.960999 -731.541870 -0.557468 0.674654 0.483809 2.000000
-103.731003 139.001602 -746.869507 -0.725658 0.543830 0.421510 2.000000
-96.583504 128.006393 -728.030884 0.264771 0.546776 0.794313 2.000000
-96.700203 129.222397 -732.934326 0.768822 0.625508 0.132864 2.000000
-100.488701 134.097900 -737.159119 0.710793 0.686544 0.153071 2.000000
-103.646797 139.899994 -748.464478 -0.498866 0.806104 0.318324 2.000000
-97.290703 130.669495 -734.773193 0.877109 0.103439 -0.469020 2.000000
-98.207603 131.955002 -736.269409 -0.118329 0.909048 0.399536 2.000000
-101.439102 136.189606 -740.220825 -0.384332 0.868192 0.313897 2.000000
-102.133301 137.424805 -742.523621 0.184943 0.765755 0.615967 2.000000
-102.049202 137.749802 -744.364502 -0.450407 0.816462 0.361280 2.000000
-103.658401 140.718704 -750.174377 -0.484495 0.790322 0.375041 2.000000
-100.671799 135.240097 -738.590698 -0.204421 0.964815 -0.165360 2.000000
-103.604500 141.078201 -751.984680 0.331951 0.880656 0.338014 2.000000
-96.166000 129.219101 -729.713379 0.853290 0.485673 0.189786 2.000000
-102.413399 139.223801 -745.530579 -0.993635 0.105706 0.038944 2.000000
-95.991501 130.059799 -731.408691 0.949298 0.137909 -0.282513 2.000000
-96.640404 131.097397 -733.074219 -0.689563 0.606882 0.395217 2.000000
-98.152496 133.576797 -737.238220 -0.983314 0.179945 -0.026702 2.000000
-97.412697 132.572800 -734.398926 0.188034 0.457500 -0.869101 2.000000
-100.560501 137.359100 -741.403076 -0.567546 0.823148 0.017865 2.000000
-102.260399 140.359802 -747.104614 -0.329113 0.911948 0.245023 2.000000
-102.405098 141.341095 -748.644470 -0.545607 0.781029 0.303822 2.000000
-100.580498 138.821198 -743.232117 -0.736469 0.484911 0.471671 2.000000
-102.307297 142.120102 -750.341797 -0.793899 0.607590 0.023636 2.000000
-95.091003 130.421204 -728.776428 -0.993725 0.108947 0.025311 2.000000
-96.916397 133.792999 -735.802185 -0.827545 0.362348 0.428804 2.000000
-98.771500 136.237503 -738.282715 -0.551019 0.674957 0.490725 2.000000
-99.427101 137.405701 -739.619324 -0.981334 0.096066 0.166596 2.000000
-100.613403 139.994293 -744.839172 0.945644 0.003738 -0.325182 2.000000
-94.819603 131.199707 -730.524719 -0.974020 0.225324 0.022652 2.000000
-95.384300 132.121399 -732.148926 0.314333 0.233955 -0.920033 2.000000
-97.283997 135.193497 -737.474670 -0.292522 0.954208 0.062592 2.000000
-101.572701 142.520096 -752.033813 -0.287519 0.812280 -0.507478 2.000000
-96.441803 133.996902 -733.004578 -0.049957 0.973543 0.222977 2.000000
-99.104897 138.473495 -741.644226 -0.436005 0.858241 0.270782 2.000000
-100.918404 141.409302 -745.963379 -0.912523 0.312906 0.263424 2.000000
-94.764900 132.261398 -728.872070 0.368748 0.923910 0.102052 2.000000
-100.854897 142.073502 -747.751709 -0.848384 0.396950 0.350250 2.000000
-104.100800 146.856003 -755.225830 -0.994665 0.081311 -0.063489 2.000000
-94.369301 133.080505 -730.463989 0.801445 0.597991 0.009623 2.000000
-94.447098 133.581497 -732.925720 0.984003 0.084890 -0.156627 2.000000
-96.375504 135.763794 -733.529480 -0.478716 0.733811 -0.482029 2.000000
-95.672501 135.293304 -735.227905 0.956989 0.271385 -0.102581 2.000000
-96.578796 136.766998 -738.156006 -0.780956 0.436751 0.446493 2.000000
-98.066803 138.705200 -740.122803 -0.327282 0.330298 0.885319 2.000000
-98.974800 140.110306 -742.635498 -0.480387 0.831738 0.278282 2.000000
-100.737198 143.138504 -749.288208 -0.420508 0.883805 0.205090 2.000000
-100.432297 143.704407 -751.004517 -0.583162 0.805319 0.106694 2.000000
-102.826202 146.762100 -753.858521 0.132802 0.965717 0.223056 2.000000
-94.363899 135.154602 -733.896912 0.911871 0.403615 -0.074744 2.000000
-95.521599 136.809494 -736.414185 -0.918881 0.182644 0.349713 2.000000
-98.636002 141.402100 -744.062622 -0.247778 0.120646 0.961275 2.000000
-99.438400 142.475006 -745.345093 0.064935 0.928964 0.364430 2.000000
-102.929398 147.973495 -756.105530 -0.218728 0.919229 -0.327377 2.000000
-93.757301 135.074905 -730.814026 -0.862612 0.181992 -0.471995 2.000000
-95.695099 138.360794 -738.552490 0.929031 0.279419 -0.242541 2.000000
