ply
format ascii 1.0
element vertex 673
property float x
property float y
property float z
property float nx
property float ny
property float nz
property float label
element face 0
property list uchar int vertex_indices
end_header
-151.898605 47.991402 -782.614685 -0.928688 0.095978 0.358227 2.000000
-149.514404 63.850201 -782.499023 0.640928 0.049739 0.765988 2.000000
-151.642395 49.975300 -782.030884 -0.020258 0.075702 0.996925 2.000000
-151.921097 49.178501 -780.103394 -0.713077 0.159644 0.682668 2.000000
-151.100204 54.662399 -779.868225 -0.832753 0.284848 0.474747 2.000000
-151.133499 49.096298 -776.287415 -0.464778 0.124417 0.876642 2.000000
-149.827805 76.344704 -778.796875 -0.586818 0.776717 0.228812 2.000000
-150.371796 51.590698 -774.760010 -0.867134 0.131296 0.480458 2.000000
-149.819397 59.182899 -772.462524 0.969728 0.212247 -0.120739 2.000000
-151.402100 44.667301 -766.344604 -0.437330 0.144821 0.887564 2.000000
-150.212906 52.340199 -772.835693 -0.091148 0.066391 0.993622 2.000000
-151.904099 51.010300 -780.382874 -0.990176 0.107703 0.089174 2.000000
-151.320206 83.306999 -786.464172 -0.656401 0.688657 -0.308041 2.000000
-140.955399 76.163200 -810.745422 -0.911444 0.269787 0.310620 2.000000
-142.150299 74.764000 -809.455200 -0.811657 0.564436 -0.150417 2.000000
-143.808899 71.171600 -809.005493 -0.876561 0.335736 -0.344851 2.000000
-146.454300 67.107201 -809.469482 -0.927630 0.035226 -0.371835 2.000000
-139.825195 78.675598 -808.200623 -0.791945 0.517871 0.323470 2.000000
-147.484406 65.524200 -809.256592 -0.653360 0.142688 -0.743479 2.000000
-141.244293 76.306702 -807.855774 -0.308092 0.662963 -0.682319 2.000000
-145.870102 68.929901 -807.887512 -0.667842 0.728418 -0.152953 2.000000
-142.289398 75.173500 -806.913818 -0.866300 0.497193 0.048204 2.000000
-140.722900 76.999603 -806.070984 -0.652019 0.753671 0.082773 2.000000
-147.712799 65.494102 -807.194519 -0.991274 0.128810 -0.028002 2.000000
-145.611801 70.282799 -806.465210 -0.644082 0.344054 -0.683216 2.000000
-146.821106 68.047302 -806.636719 -0.970487 0.193075 -0.144486 2.000000
-143.648605 74.463501 -805.701721 0.399800 0.024906 -0.916264 2.000000
-142.178299 75.575500 -804.883484 -0.427649 0.818733 -0.383135 2.000000
-144.755295 73.034599 -805.476318 -0.839314 0.439194 -0.320408 2.000000
-143.783493 74.538696 -803.829590 -0.543619 0.476712 -0.690814 2.000000
-148.376205 63.373501 -803.763428 -0.444704 0.154995 -0.882165 2.000000
-144.797302 73.208801 -802.141479 -0.524519 0.756549 -0.390530 2.000000
-146.602997 70.092300 -801.921082 -0.356919 0.140268 -0.923544 2.000000
-149.332001 61.507801 -801.951416 -0.906374 0.342992 0.246662 2.000000
-148.712997 63.163200 -801.494507 -0.934712 0.202591 0.292010 2.000000
-147.642395 67.515800 -799.498474 -0.952956 0.217010 0.211618 2.000000
-150.440903 57.930599 -799.523193 0.772605 0.001377 0.634886 2.000000
-149.084900 62.874901 -798.102722 -0.966344 0.143593 -0.213449 2.000000
-146.112000 80.666603 -798.260986 0.945056 0.121641 0.303434 2.000000
-147.950394 51.341400 -795.963989 -0.444008 0.108535 0.889425 2.000000
-148.593796 64.270599 -797.090820 -0.959073 0.282945 -0.011024 2.000000
-147.361893 68.243202 -796.815918 -0.849098 0.304685 0.431509 2.000000
-151.186707 55.309399 -796.043579 -0.965262 0.149401 0.214358 2.000000
-146.658295 69.404999 -794.978088 -0.803548 0.474461 0.359440 2.000000
-149.083206 62.350800 -794.815613 -0.868776 0.236391 -0.435141 2.000000
-147.897202 67.140602 -793.220703 -0.969615 0.243312 -0.025421 2.000000
-148.275696 65.673798 -792.142578 -0.964818 0.262692 -0.010895 2.000000
-145.816498 71.715103 -800.719727 -0.407820 0.366881 -0.836111 2.000000
-145.414597 72.362396 -803.622192 -0.957305 0.141285 0.252200 2.000000
-146.901901 68.307098 -803.786621 -0.978607 0.117235 -0.169066 2.000000
-146.122696 71.054497 -804.812012 -0.917628 0.397337 0.009060 2.000000
-139.266693 84.227303 -808.102722 -0.299316 0.065516 0.951902 2.000000
-145.081696 68.559502 -809.520996 -0.862372 0.350194 0.365621 2.000000
-148.810196 62.190601 -805.512817 -0.467117 0.334107 0.818642 2.000000
-143.123901 84.752296 -804.719421 -0.317195 0.060850 0.946406 2.000000
-148.833405 64.124298 -791.334229 -0.968585 0.248447 -0.010802 2.000000
-152.113098 50.721199 -773.244080 -0.983449 0.179546 -0.024326 2.000000
-46.040001 96.352898 -814.498413 0.402617 0.912327 -0.074559 2.000000
-46.648602 96.989304 -816.099182 0.813972 0.358403 0.457162 2.000000
-46.929699 98.476898 -817.088684 0.266581 0.892078 0.364873 2.000000
-45.531502 97.573502 -813.100281 0.953576 0.021191 -0.300407 2.000000
-45.650600 98.505203 -814.713989 -0.958028 0.278630 0.067431 2.000000
-47.134998 99.958702 -818.171814 0.895268 0.431471 -0.111030 2.000000
-44.936501 98.762299 -811.093323 0.999632 0.027126 0.001005 2.000000
-45.965401 100.109802 -815.617615 0.982549 0.173110 0.068050 2.000000
-44.740002 99.606697 -812.672485 -0.984994 0.167087 0.043232 2.000000
-46.385700 101.271698 -816.916992 -0.718984 0.529691 0.449988 2.000000
-47.293301 102.071999 -818.532288 0.159672 0.028718 -0.986752 2.000000
-44.744801 99.780800 -809.453918 0.910594 0.100565 -0.400882 2.000000
-45.047199 100.711502 -814.093872 -0.941072 0.186010 0.282459 2.000000
-44.638401 100.655502 -811.112671 -0.991705 0.128493 0.003295 2.000000
-45.709301 101.957199 -815.265076 -0.951916 0.279352 0.125775 2.000000
-46.044201 103.067398 -816.802979 -0.074789 0.990672 -0.113910 2.000000
-46.840900 103.811203 -818.515930 0.956054 0.163553 -0.243335 2.000000
-48.420898 105.364197 -822.398071 -0.890111 0.386554 0.241411 2.000000
-47.366100 105.685699 -820.724487 0.966712 0.048274 -0.251271 2.000000
-48.279099 109.018402 -821.228394 0.541175 0.332413 -0.772419 2.000000
-46.496101 108.052597 -818.557617 -0.991746 0.001096 0.128215 2.000000
-47.010399 109.114899 -819.929626 0.855560 0.209003 -0.473640 2.000000
-49.163101 110.621902 -821.597229 0.351433 0.662002 0.662002 2.000000
-52.084801 113.133003 -826.841980 0.737492 0.557616 0.381011 2.000000
-44.927898 107.356903 -812.560486 -0.994724 0.076860 0.067949 2.000000
-45.257900 107.872704 -814.645813 0.976528 0.133788 -0.168798 2.000000
-45.920502 108.519402 -816.337585 0.926009 0.136624 -0.351911 2.000000
-47.814201 110.768097 -820.106201 0.670021 0.319598 -0.670021 2.000000
-52.888901 114.801498 -827.198730 0.905331 0.109864 -0.410250 2.000000
-45.330601 109.550903 -817.794800 0.984167 0.121666 -0.128893 2.000000
-49.293301 112.344299 -821.081726 0.415890 0.140523 -0.898493 2.000000
-44.749802 109.087097 -812.996521 0.955621 0.158163 -0.248541 2.000000
-45.338299 109.687401 -814.685730 -0.884756 0.465731 0.017348 2.000000
-51.924500 115.182297 -825.706299 -0.262088 0.279274 0.923751 2.000000
-42.595402 107.317596 -805.665588 -0.917162 0.328686 0.225343 2.000000
-43.980400 108.874298 -810.586304 -0.817214 0.576293 0.006844 2.000000
-46.188702 111.360603 -818.460022 0.429169 0.188952 -0.883239 2.000000
-48.034302 112.634697 -819.848328 0.441113 0.120561 -0.889317 2.000000
-53.238300 116.616798 -826.279907 0.159107 0.149085 -0.975940 2.000000
-45.026501 110.839600 -816.061218 -0.987528 0.117084 0.105258 2.000000
-42.734200 108.583000 -807.007813 -0.827545 0.362348 0.428804 2.000000
-44.824200 110.469002 -811.455078 -0.491241 0.768686 -0.409639 2.000000
-45.011700 110.856598 -813.263794 -0.988610 0.150465 0.003344 2.000000
-48.835400 114.149300 -820.381775 0.914179 0.259331 -0.311487 2.000000
-49.544399 114.788902 -821.889221 -0.174374 0.978227 0.112539 2.000000
-46.740700 113.017899 -818.032227 0.197435 0.221610 -0.954939 2.000000
-50.756802 116.299896 -824.382874 -0.169268 0.699946 -0.693847 2.000000
-42.946499 109.821701 -808.474487 -0.909196 0.336039 0.245847 2.000000
-45.372200 112.490196 -816.735779 -0.967204 0.145920 0.207904 2.000000
-49.337601 115.789703 -823.387024 -0.009223 0.897269 -0.441388 2.000000
-52.006199 117.556099 -824.934692 0.218586 0.297559 -0.929343 2.000000
-54.049000 118.806801 -825.465027 -0.108296 0.524153 -0.844710 2.000000
-43.578701 110.929802 -809.889771 -0.860639 0.366197 0.353836 2.000000
-47.530602 114.561996 -818.708923 0.755680 0.368902 -0.541164 2.000000
-44.207199 112.158798 -811.345581 0.796543 0.224269 -0.561447 2.000000
-44.896702 112.801498 -812.942871 0.995400 0.094028 -0.018373 2.000000
-44.987701 113.137100 -814.759216 0.961976 0.255585 -0.096326 2.000000
-48.431999 115.866600 -819.657288 0.878600 0.171042 -0.445878 2.000000
-48.901100 116.399597 -821.357300 -0.912969 0.405021 -0.049458 2.000000
-42.157101 111.086998 -807.307617 0.986380 0.042886 -0.158794 2.000000
-45.333302 114.273598 -816.114624 0.938362 0.058729 -0.340629 2.000000
-53.963100 120.502502 -824.527771 0.416201 0.422629 -0.805085 2.000000
-43.300201 112.867104 -809.721375 0.966539 0.008426 -0.256380 2.000000
-46.369999 115.745499 -816.954224 0.570333 0.270158 -0.775716 2.000000
-47.470501 116.568802 -818.218018 0.759802 0.201895 -0.618013 2.000000
-51.006199 119.307701 -822.875488 -0.403246 0.435377 -0.804885 2.000000
-44.489101 114.585800 -811.699219 -0.848884 0.180518 0.496799 2.000000
-45.277302 115.266602 -813.187683 0.984178 0.048209 0.170497 2.000000
-45.523201 115.694397 -815.021973 0.952308 0.256546 -0.165210 2.000000
-48.104698 117.843300 -819.383118 -0.971709 0.236105 0.005932 2.000000
-48.371201 118.273804 -821.159790 -0.995975 0.077623 0.044824 2.000000
-54.466400 122.344398 -825.078125 0.742779 0.663978 -0.086098 2.000000
-46.259602 117.504097 -815.242676 0.564691 0.425588 0.707106 2.000000
-47.064499 118.185997 -816.692383 0.973505 0.075265 -0.215923 2.000000
-50.492699 120.852402 -821.348389 -0.741944 0.658345 -0.126892 2.000000
-52.895199 122.431999 -822.767090 0.368097 0.343455 -0.864027 2.000000
-54.297501 123.330101 -823.442383 -0.675678 0.209693 0.706744 2.000000
-43.131802 115.381699 -808.742310 -0.953721 0.120040 0.275695 2.000000
-43.844101 116.028801 -810.310486 -0.940921 0.042477 0.335951 2.000000
-44.868801 116.830597 -811.740723 0.794933 0.244236 -0.555364 2.000000
-45.879101 117.602402 -813.031921 0.938967 0.316613 0.134526 2.000000
-47.469200 119.282204 -818.035400 0.930315 0.095590 -0.354085 2.000000
-48.551102 120.086403 -819.274475 0.857279 0.390796 -0.335188 2.000000
-51.110600 122.507301 -821.780212 0.493770 0.289992 -0.819815 2.000000
-46.396900 119.137703 -813.837830 0.967192 0.248919 0.050775 2.000000
-46.938499 119.698097 -815.469604 -0.641245 0.764616 -0.064555 2.000000
-48.929600 121.563103 -820.224426 0.574901 0.783673 0.235258 2.000000
-54.374901 125.089302 -823.173279 0.447974 0.831503 0.328514 2.000000
-47.528099 120.723297 -816.914673 0.840403 0.537121 -0.072277 2.000000
-52.347698 124.174202 -821.653809 0.313358 0.246932 -0.916969 2.000000
-43.810501 117.940201 -810.069885 0.896525 0.286947 -0.337498 2.000000
-44.819901 118.711403 -811.372681 0.908950 0.242871 -0.338857 2.000000
-48.396599 121.784897 -818.172729 0.924742 0.090714 -0.369626 2.000000
-50.008099 123.039001 -820.399719 0.801762 0.366474 -0.472095 2.000000
-46.300900 120.518600 -812.390320 -0.913582 0.068822 0.400789 2.000000
-47.062500 121.192101 -813.954773 0.973465 0.226862 -0.030008 2.000000
-53.260601 125.925400 -821.927429 0.541071 0.205759 -0.815417 2.000000
-47.517399 122.150902 -815.431885 0.982118 0.154177 -0.108045 2.000000
-50.807598 124.722099 -820.037781 0.980825 0.015125 0.194303 2.000000
-54.404202 133.235596 -821.907776 -0.356290 0.901722 -0.244858 2.000000
-51.798000 131.573303 -817.672485 0.453985 0.713406 0.533807 2.000000
-52.428200 132.173004 -819.317017 0.782362 0.621660 0.038061 2.000000
-53.433201 133.422897 -820.348877 0.384982 0.866594 0.317495 2.000000
-53.238602 133.247101 -817.547974 0.614783 0.776331 0.139111 2.000000
-51.952801 132.569397 -815.063110 0.218539 0.965969 0.138365 2.000000
-47.516399 134.626694 -809.227417 0.484515 0.001327 -0.874782 2.000000
-41.621498 127.281303 -801.644470 -0.989138 0.103935 0.103935 2.000000
-42.425301 127.909897 -803.265686 0.936666 0.263830 -0.230328 2.000000
-54.318501 134.913101 -820.820801 0.772920 0.480024 -0.414936 2.000000
-37.267601 116.767700 -795.681396 -0.467951 0.494408 -0.732518 2.000000
-37.721802 117.198502 -797.417786 0.837165 0.069410 -0.542528 2.000000
-38.534698 117.805702 -798.906372 0.895868 0.058634 -0.440434 2.000000
-39.345901 118.410301 -800.379272 0.933229 0.073012 -0.351786 2.000000
-40.062698 118.970100 -801.933289 0.945084 0.008762 -0.326711 2.000000
-40.920399 119.611298 -803.509521 -0.993794 0.050192 0.099268 2.000000
-48.307301 123.196198 -816.710388 0.970173 0.211789 -0.117943 2.000000
-42.469002 114.422501 -806.888672 0.976089 0.178721 -0.123730 2.000000
-49.089199 117.483299 -825.078918 0.492473 0.862905 0.113427 2.000000
-45.101601 106.205498 -815.342407 0.999496 0.021396 -0.023434 2.000000
-45.543701 105.121399 -816.735718 -0.935853 0.219625 0.275580 2.000000
-46.161701 106.609703 -817.561279 -0.443312 0.857679 0.260503 2.000000
-45.296001 103.992302 -815.368286 0.244861 0.047988 0.968370 2.000000
-45.012600 103.142197 -813.823730 0.040922 0.098435 0.994302 2.000000
-44.612499 105.650101 -813.150391 0.752743 0.070795 0.654496 2.000000
-44.686100 106.081001 -811.323608 0.975383 0.121453 0.184058 2.000000
-49.605999 83.679604 -804.390991 -0.899872 0.410842 0.146425 2.000000
-46.587299 94.589500 -811.281677 -0.996671 0.079947 -0.015989 2.000000
-46.539200 94.903900 -813.131775 -0.993592 0.077642 0.082143 2.000000
-58.430401 140.726501 -817.464417 -0.909852 0.319836 0.264339 2.000000
-56.949699 139.823898 -817.054688 -0.021567 0.999260 -0.031837 2.000000
-56.425900 139.882706 -819.834717 0.931472 0.255837 0.258664 2.000000
-54.817402 137.962402 -818.807129 0.343893 0.833823 -0.431829 2.000000
-52.166000 135.951004 -818.671997 -0.873982 0.375432 -0.308554 2.000000
-53.023701 140.245895 -814.197510 0.959890 0.264131 0.094056 2.000000
-51.023399 135.212708 -813.271179 -0.439966 0.844175 -0.306266 2.000000
-49.556999 132.233002 -812.582214 -0.998124 0.059699 0.013616 2.000000
-51.430401 141.476807 -813.011597 0.031658 0.948461 0.315309 2.000000
-47.801701 130.875000 -811.775513 0.727655 0.653183 0.209453 2.000000
-50.689701 143.147995 -812.502380 0.960707 0.259197 0.099295 2.000000
-45.687000 129.940994 -810.879517 0.521483 0.842844 -0.132927 2.000000
-44.948399 127.211998 -810.846130 0.959907 0.257789 0.110111 2.000000
-55.536098 139.185898 -815.807678 0.883854 0.192015 -0.426536 2.000000
-56.617699 140.213303 -814.216797 -0.319521 0.945627 -0.060800 2.000000
-57.846100 140.585693 -815.464417 0.847414 0.517140 0.120231 2.000000
-44.366402 92.858803 -802.380981 0.295905 0.860119 0.415494 2.000000
-45.227001 92.201599 -803.909180 -0.965200 0.245433 0.090289 2.000000
-45.994202 92.093300 -805.570679 -0.864825 0.451148 0.220328 2.000000
-46.951000 91.538101 -807.423584 -0.913080 0.286885 0.289797 2.000000
-47.341499 91.236298 -809.182983 -0.981458 0.083297 0.172630 2.000000
-47.640598 90.718498 -810.917419 0.991397 0.079083 -0.104297 2.000000
-45.881001 90.372002 -803.508301 -0.458159 0.867388 0.194236 2.000000
-48.828701 86.526497 -808.362122 0.975413 0.044611 -0.215821 2.000000
-48.489498 87.154503 -806.715210 -0.853811 0.487253 0.183279 2.000000
-47.893299 87.883797 -805.186218 -0.915099 0.352620 0.195583 2.000000
-46.974899 88.739502 -803.807495 -0.782287 0.605786 0.145089 2.000000
-49.577499 85.235901 -806.716309 -0.933483 0.332118 0.135307 2.000000
-48.715599 86.075104 -805.314209 -0.823638 0.444227 0.352536 2.000000
-47.915401 86.953102 -803.651672 -0.820853 0.477387 0.313531 2.000000
-48.832600 85.236298 -803.670898 -0.969119 0.224228 -0.102613 2.000000
-49.713299 83.241798 -802.626282 -0.861683 0.328334 -0.386910 2.000000
-48.265202 88.200897 -808.620117 0.954093 0.164591 -0.250232 2.000000
-47.869900 88.852898 -806.850525 0.941715 0.019012 -0.335874 2.000000
-47.172298 89.586700 -805.370605 -0.643994 0.763410 -0.049757 2.000000
-44.788601 93.949203 -803.947021 -0.971032 0.221771 0.088959 2.000000
-44.075600 94.708801 -802.371582 0.198211 0.953302 -0.227876 2.000000
-47.496899 91.159500 -812.915894 0.552001 0.832868 -0.040322 2.000000
-46.209202 93.153603 -807.585388 -0.866747 0.307259 0.392864 2.000000
-45.310001 93.957199 -806.205078 -0.942524 0.165044 0.290532 2.000000
-47.368999 92.481003 -810.966187 -0.868461 0.487186 -0.091789 2.000000
-46.840801 93.159798 -809.331726 -0.933678 0.343561 0.101047 2.000000
-44.470798 95.703003 -803.994812 -0.606788 0.793492 -0.046676 2.000000
-43.729900 96.459702 -802.479004 -0.974143 0.221451 0.044774 2.000000
-42.425598 97.788597 -802.032227 -0.222963 0.753083 -0.618994 2.000000
-47.482700 92.448898 -814.395813 -0.889170 0.017330 -0.457249 2.000000
-47.312500 92.961304 -812.698608 -0.788784 0.610625 -0.070402 2.000000
-45.952801 94.741600 -808.354187 -0.840300 0.081044 0.536029 2.000000
-45.067799 95.721497 -806.239380 -0.929579 0.368516 0.008926 2.000000
-44.122398 97.482597 -804.013123 -0.929523 0.183109 0.320091 2.000000
-45.310600 96.420403 -808.034790 -0.961313 0.033405 0.273424 2.000000
-44.522499 97.375801 -805.793884 -0.962861 0.115026 0.244269 2.000000
-47.493599 94.118202 -815.338623 -0.825391 0.528553 -0.198397 2.000000
-46.070702 96.063400 -810.361023 -0.957798 0.143604 0.249001 2.000000
-43.603100 99.057503 -803.270386 -0.905527 0.036008 0.422757 2.000000
-42.731400 99.836403 -801.898193 -0.919484 0.337857 0.201003 2.000000
-44.713699 98.062500 -807.500427 -0.938885 0.273206 0.209412 2.000000
-43.989300 98.983398 -805.232422 0.936573 0.114875 -0.331112 2.000000
-45.462700 97.771599 -809.673706 -0.205704 0.959508 -0.192432 2.000000
-42.121300 101.457397 -801.479370 -0.128215 0.001096 0.991746 2.000000
-44.139900 99.639801 -806.903015 -0.995532 0.038248 0.086330 2.000000
-43.665798 100.500603 -804.357483 -0.984594 0.140314 0.104336 2.000000
-43.066399 101.575798 -803.036011 0.938926 0.006302 -0.344063 2.000000
-41.540298 103.152397 -801.622070 0.966120 0.208786 0.151726 2.000000
-43.725498 101.300201 -806.307922 0.978319 0.140114 -0.152514 2.000000
-44.277901 100.946098 -808.159973 -0.943568 0.287291 0.164750 2.000000
-43.579700 102.281502 -804.794983 -0.970124 0.224647 0.091616 2.000000
-42.839100 103.286003 -803.518799 -0.984020 0.080109 0.159021 2.000000
-44.560501 102.006500 -809.933105 -0.838440 0.090294 0.537462 2.000000
-43.912300 102.694504 -808.300903 0.395910 0.861143 -0.318885 2.000000
-43.614700 103.220100 -806.587402 0.936028 0.327406 -0.129060 2.000000
-42.069302 104.824402 -802.861206 -0.786073 0.618120 -0.004130 2.000000
-44.643799 101.935097 -812.512695 0.984020 0.080109 -0.159021 2.000000
-43.282101 104.220703 -805.149475 -0.968605 0.187014 0.163799 2.000000
-44.578999 103.441704 -811.533875 0.431117 0.892114 -0.135169 2.000000
-44.265598 103.959602 -809.822021 0.859704 0.241081 -0.450321 2.000000
-43.914902 104.494102 -808.122375 0.944307 0.291285 -0.153094 2.000000
-42.667198 105.860802 -804.639587 -0.509183 0.826077 -0.241516 2.000000
-41.884499 106.590202 -803.068481 -0.942783 0.262878 0.205073 2.000000
-40.835201 107.464699 -801.457214 -0.625788 0.766853 -0.142566 2.000000
-39.958401 108.206497 -800.057495 -0.928080 0.016734 0.372004 2.000000
-43.521099 105.668999 -806.750183 0.929989 0.059361 -0.362762 2.000000
-39.828800 109.767197 -799.183289 0.959521 0.271418 -0.075182 2.000000
-44.156601 106.170303 -809.620972 0.984631 0.036037 -0.170886 2.000000
-42.123299 108.303703 -804.198730 -0.923412 0.065481 0.378184 2.000000
-41.350498 109.000603 -802.704712 -0.958226 0.170970 0.229285 2.000000
-40.669102 109.659401 -801.166992 -0.950298 0.123605 0.285754 2.000000
-43.709801 107.549004 -808.556519 -0.879042 0.364628 0.307135 2.000000
-41.985500 109.868698 -805.999084 0.980338 0.104031 -0.167673 2.000000
-41.715401 110.347397 -804.248291 -0.994292 0.106647 0.003232 2.000000
-41.337799 110.871696 -802.545776 0.925551 0.148477 -0.348296 2.000000
-40.820599 111.453499 -800.913330 0.956146 0.138859 -0.257882 2.000000
-47.337799 105.500000 -818.892273 -0.775047 0.537559 0.332163 2.000000
-41.799702 111.652802 -805.585022 0.976984 0.193426 -0.089937 2.000000
-41.862202 112.612999 -804.059814 -0.984912 0.121165 0.123564 2.000000
-41.513000 113.113403 -802.334229 0.985950 0.042968 -0.161422 2.000000
-47.328899 107.491203 -820.622314 0.815897 0.320362 -0.481332 2.000000
-38.736099 115.801598 -799.035522 -0.948044 0.143888 0.283741 2.000000
-48.707600 107.146599 -822.813110 -0.901708 0.418001 0.110442 2.000000
-42.673000 112.858002 -808.029114 -0.464637 0.841287 -0.276313 2.000000
-42.234501 114.288696 -805.070679 0.840974 0.470637 -0.266951 2.000000
-41.862202 114.782303 -803.351196 0.990237 0.125361 -0.060955 2.000000
-39.933899 116.166397 -801.086304 -0.962964 0.216176 0.161149 2.000000
-37.756302 118.763702 -796.493530 0.916231 0.123365 0.381185 2.000000
-40.934601 116.691902 -803.107971 0.831185 0.023433 -0.555502 2.000000
-42.511700 116.056702 -806.147217 0.961334 0.175387 -0.212311 2.000000
-42.288601 116.474602 -804.337830 0.909145 0.412020 -0.060790 2.000000
-38.374199 119.480003 -798.313110 0.979681 0.048924 -0.194504 2.000000
-43.217701 116.914597 -807.782104 -0.958043 0.078234 0.275742 2.000000
-41.787498 118.195900 -804.260498 0.897580 0.143670 -0.416784 2.000000
-39.275799 120.158096 -799.919617 0.932830 0.161691 -0.321999 2.000000
-42.683102 117.883698 -806.363770 -0.609243 0.789866 -0.070242 2.000000
-39.028198 121.360497 -798.627625 0.849658 0.291444 -0.439478 2.000000
-40.070202 120.725800 -801.440186 0.813021 0.150670 -0.562402 2.000000
-42.135300 119.469803 -805.694519 -0.791877 0.035039 0.609675 2.000000
-43.609901 118.572800 -808.409180 -0.905219 0.121722 0.407139 2.000000
-42.791100 119.789703 -807.371887 -0.901290 0.055568 0.429638 2.000000
-40.008202 122.033302 -800.164795 0.945185 0.169997 -0.278795 2.000000
-41.688999 121.094299 -805.072876 0.901787 0.075263 -0.425578 2.000000
-40.993500 121.621101 -803.498413 0.905296 0.390436 -0.167330 2.000000
-39.274200 123.081398 -798.109680 0.971192 0.164630 -0.172288 2.000000
-44.529701 119.700798 -809.864502 -0.667564 0.329721 0.667564 2.000000
-40.670399 122.504204 -801.924011 0.949033 0.143630 -0.280549 2.000000
-48.236900 117.246300 -823.451782 0.590934 0.201071 -0.781260 2.000000
-43.726700 120.988297 -808.903870 -0.933409 0.098042 0.345160 2.000000
-42.761799 121.629501 -807.442505 -0.887313 0.435747 0.151001 2.000000
-40.126701 123.750099 -799.623779 -0.975175 0.022623 0.220278 2.000000
-42.163799 122.969200 -806.396729 -0.954924 0.172287 0.241736 2.000000
-41.822300 123.309402 -804.628906 -0.154299 0.940812 -0.301770 2.000000
-50.451401 118.025200 -824.028015 0.094126 0.583578 -0.806583 2.000000
-49.181900 118.777603 -822.947083 0.336031 0.592518 -0.732125 2.000000
-45.492298 121.733200 -811.213989 -0.747018 0.313266 0.586369 2.000000
-44.262100 122.473396 -810.042603 0.818777 0.017889 -0.573832 2.000000
-43.360802 123.072701 -808.546814 0.784202 0.307000 -0.539238 2.000000
-41.468700 124.518799 -803.307922 0.052674 0.971403 -0.231520 2.000000
-41.061100 124.885597 -801.560791 0.993513 0.112825 -0.014240 2.000000
-48.124599 120.222603 -821.089783 0.821445 0.205742 -0.531882 2.000000
-40.803600 125.847801 -800.022278 0.058763 0.989745 -0.130199 2.000000
-43.200699 124.388603 -807.357117 0.828843 0.479199 -0.288768 2.000000
-42.561401 124.857498 -805.738403 0.877810 0.269516 -0.395993 2.000000
-46.820202 122.334396 -812.587891 0.801571 0.157318 -0.576832 2.000000
-45.428299 123.535400 -811.173096 -0.844497 0.020531 0.535167 2.000000
-44.371601 124.206703 -809.569092 0.768085 0.142238 -0.624350 2.000000
-52.206100 119.249802 -824.373901 0.224838 0.466274 -0.855591 2.000000
-42.174500 126.022499 -804.407776 0.935276 0.231365 -0.267823 2.000000
-47.495602 123.300301 -813.978577 0.971490 0.205921 -0.117488 2.000000
-43.935501 125.585098 -808.507813 0.850772 0.402833 -0.337509 2.000000
-51.902802 120.802498 -823.411011 0.475803 0.404351 -0.781096 2.000000
-43.366001 126.083801 -806.804810 0.881491 0.167556 -0.441474 2.000000
-48.152302 123.035599 -819.470581 0.731941 0.289893 -0.616624 2.000000
-46.840199 124.134903 -812.324585 0.476455 0.185535 -0.859400 2.000000
-45.518101 125.274002 -810.694214 0.848345 0.034486 -0.528319 2.000000
-43.121201 127.194801 -805.369507 0.902749 0.281281 -0.325461 2.000000
-48.225300 124.368301 -815.331787 0.979798 0.192610 -0.053835 2.000000
-48.448601 124.397003 -818.332520 0.872349 0.417341 -0.254624 2.000000
-48.131199 125.097900 -813.671509 0.961495 0.263615 -0.077684 2.000000
-46.901402 125.848099 -811.820801 0.575459 0.190802 -0.795262 2.000000
-45.115200 126.939598 -809.082214 0.755099 0.536561 -0.376734 2.000000
-44.152401 127.525398 -807.671326 0.760496 0.219284 -0.611196 2.000000
-48.430401 125.417999 -816.788696 0.813509 0.578652 0.058007 2.000000
-50.008499 125.419701 -818.512329 0.655631 0.391397 -0.645722 2.000000
-48.466499 126.403198 -815.254517 -0.715676 0.675831 -0.176237 2.000000
-48.269100 126.613098 -812.720825 0.865026 0.178920 -0.468741 2.000000
-46.684101 127.547600 -811.295776 0.784451 0.255221 -0.565243 2.000000
-44.220001 129.090103 -806.817505 0.855989 0.379236 -0.351373 2.000000
-43.579700 129.508698 -805.206299 0.918149 0.201336 -0.341272 2.000000
-49.742100 126.694901 -817.271973 0.658056 0.506585 -0.557076 2.000000
-45.666401 129.269699 -809.221619 0.714192 0.230739 -0.660824 2.000000
-52.042999 126.345703 -820.652771 0.559963 0.137405 -0.817044 2.000000
-51.161999 126.892097 -819.176086 0.755561 0.292321 -0.586239 2.000000
-49.438999 127.970703 -816.037109 0.276884 0.914732 -0.294280 2.000000
-49.110298 128.224106 -814.256470 0.919879 0.383396 -0.082640 2.000000
-48.658298 128.542999 -812.538513 0.074400 0.314568 -0.946315 2.000000
-47.719299 129.119293 -811.114624 0.717270 0.551619 -0.425724 2.000000
-45.310501 130.573593 -808.061890 0.855851 0.313041 -0.411734 2.000000
-43.749199 131.483398 -806.896606 0.513920 0.305189 -0.801715 2.000000
-42.691601 132.123993 -805.503784 0.448043 0.471019 -0.759867 2.000000
-41.718300 132.720093 -804.060120 0.584442 0.299426 -0.754170 2.000000
-40.650799 133.365204 -802.692078 0.765902 0.208882 -0.608080 2.000000
-39.603802 133.999100 -801.318604 0.546645 0.250740 -0.798942 2.000000
-50.739300 128.087494 -817.832520 0.845565 0.351668 -0.401683 2.000000
-38.890099 135.357193 -800.411072 0.972759 0.020341 -0.230926 2.000000
-52.341301 127.540100 -826.177490 0.589026 0.713722 -0.379011 2.000000
-51.445702 128.098495 -824.697510 0.757472 0.515343 -0.400822 2.000000
-50.683201 128.587296 -823.113403 0.415975 0.836658 -0.356325 2.000000
-46.481098 131.449005 -810.351013 0.660089 0.268808 -0.701445 2.000000
-45.107700 132.319702 -807.734619 0.919164 0.312142 -0.240220 2.000000
-50.474899 129.364304 -821.498901 0.538649 0.791388 -0.289070 2.000000
-52.000500 128.595306 -819.577820 -0.359831 0.929674 -0.078922 2.000000
-50.529301 129.531799 -816.710327 0.640651 0.731502 -0.233391 2.000000
-50.296101 129.736694 -814.888977 0.927126 0.257772 -0.272014 2.000000
-50.140701 129.897003 -813.099426 0.706773 0.567735 -0.422077 2.000000
-44.269501 133.431702 -806.562500 0.763173 0.208983 -0.611468 2.000000
-43.264999 134.048203 -805.157288 0.710769 0.276322 -0.646880 2.000000
-42.176701 134.708496 -803.821899 0.636319 0.067510 -0.768466 2.000000
-41.047298 135.389893 -802.528381 0.558484 0.180107 -0.809726 2.000000
-46.084301 132.882294 -809.306519 0.819539 0.249425 -0.515891 2.000000
-40.154598 136.497803 -801.450317 0.658325 0.516894 -0.547201 2.000000
-50.690701 130.308304 -819.932678 -0.948126 0.316042 0.034270 2.000000
-53.032299 128.995102 -825.358582 0.643975 0.663739 -0.380456 2.000000
-52.254799 129.492096 -823.802124 0.482055 0.780701 -0.397654 2.000000
-47.899700 132.439896 -810.890991 0.539194 0.469083 -0.699450 2.000000
-54.111000 128.537201 -826.740417 0.038227 0.019630 -0.999076 2.000000
-45.888000 133.921906 -807.862915 0.759446 0.271118 -0.591385 2.000000
-52.008598 130.335297 -822.213684 0.512575 0.777756 -0.363815 2.000000
-50.695999 131.317596 -816.252808 0.972934 0.227139 -0.042513 2.000000
-51.058201 131.195999 -814.165588 0.902755 0.429568 -0.022470 2.000000
-44.543400 135.201401 -806.323730 0.713746 0.202822 -0.670395 2.000000
-43.500000 135.845901 -804.992798 0.766759 0.188246 -0.613713 2.000000
-42.528000 136.451797 -803.615112 0.687150 0.341127 -0.641449 2.000000
-41.867001 137.742798 -802.475830 -0.852808 0.120175 0.508210 2.000000
-54.700901 130.761505 -825.218079 -0.747086 0.473320 0.466723 2.000000
-53.676800 131.396301 -823.823486 0.596024 0.649751 -0.471783 2.000000
-52.958500 131.864899 -822.256592 0.839882 0.468664 -0.273774 2.000000
-51.288799 133.029205 -816.714478 0.584342 0.772334 -0.249089 2.000000
-51.922699 132.807693 -813.238770 0.804909 0.510777 -0.302039 2.000000
-50.098598 133.882095 -812.181396 0.366446 0.439417 -0.820140 2.000000
-49.138802 134.481796 -810.756592 -0.507772 0.171243 0.844301 2.000000
-46.671200 135.970993 -808.420471 0.788890 0.296826 -0.538096 2.000000
-45.711201 136.569595 -807.026489 0.625510 0.571557 -0.531093 2.000000
-44.553398 137.273895 -805.789795 0.793005 0.241485 -0.559310 2.000000
-43.596100 137.870407 -804.409790 0.555964 0.439792 -0.705327 2.000000
-48.705502 136.027298 -809.975220 0.794933 0.244236 -0.555364 2.000000
-53.116501 134.413406 -816.205383 0.397137 0.915956 -0.057498 2.000000
-52.938801 134.597794 -814.271606 0.132032 0.986076 0.101105 2.000000
-50.611099 136.028503 -811.688477 0.530692 0.120678 -0.838930 2.000000
-48.706501 137.238403 -808.668030 0.016337 0.946270 -0.322963 2.000000
-47.619900 137.910599 -807.360779 0.925095 0.011580 -0.379559 2.000000
-52.760399 135.728394 -812.833130 -0.513034 0.155241 0.844214 2.000000
-50.173000 137.315094 -810.455811 0.322190 0.946668 -0.003732 2.000000
-53.546101 135.926605 -817.535278 0.907858 0.407638 0.098109 2.000000
-53.835300 135.868500 -815.423096 0.798695 0.569624 0.193947 2.000000
-54.312099 135.682404 -813.716919 0.610361 0.769452 0.188156 2.000000
-50.091801 138.338104 -808.966187 -0.960952 0.191662 0.199593 2.000000
-49.169998 138.937805 -807.541870 -0.221036 0.897317 -0.382055 2.000000
-54.945301 135.813599 -822.226807 0.664593 0.651465 -0.365936 2.000000
-53.940300 136.504196 -820.051819 0.839917 0.519949 0.155540 2.000000
-52.965900 137.468002 -812.340088 0.254706 0.354822 -0.899570 2.000000
-51.863499 138.164200 -811.122986 0.517878 0.291208 -0.804363 2.000000
-48.445000 140.358093 -806.680420 -0.875585 0.155369 0.457395 2.000000
-55.310200 136.853394 -817.087280 -0.263883 0.948626 -0.174569 2.000000
-55.294601 136.959595 -815.256714 0.702885 0.711236 -0.009743 2.000000
-55.577000 136.896301 -813.397827 0.546131 0.748281 -0.376586 2.000000
-50.982700 139.681900 -810.612183 0.195412 0.313503 -0.929263 2.000000
-49.836498 140.405899 -809.368225 0.631540 0.082754 -0.770914 2.000000
-47.955101 141.688599 -805.558289 0.966752 0.040641 -0.252464 2.000000
-56.181198 136.758408 -823.207581 0.547928 0.527697 -0.649084 2.000000
-55.362499 137.326706 -821.375610 -0.014842 0.985312 -0.170118 2.000000
-54.689800 138.185303 -812.500000 0.169069 0.269158 -0.948140 2.000000
-49.126400 141.615997 -808.156311 0.918171 0.060142 -0.391593 2.000000
-53.350201 139.356293 -811.945679 -0.160318 0.132977 0.978067 2.000000
-54.401501 138.839905 -814.425903 -0.595612 0.737654 0.317982 2.000000
-48.560799 142.794098 -806.847778 0.568692 0.760926 -0.312380 2.000000
-56.391300 137.826508 -819.921875 0.415064 0.887327 0.200932 2.000000
-48.076000 143.410400 -805.082886 -0.815496 0.432484 0.384608 2.000000
-57.814499 137.111893 -824.174194 -0.018131 0.765689 -0.642955 2.000000
-57.080502 137.643494 -821.878113 0.186361 0.960885 -0.204865 2.000000
-56.435398 138.179306 -818.094116 0.151594 0.971986 -0.179620 2.000000
-56.628799 138.193802 -814.712891 0.709203 0.621567 0.332693 2.000000
-52.437000 140.843399 -811.560913 -0.378902 0.849802 -0.366428 2.000000
-51.395302 141.524994 -810.182495 0.318187 0.114118 -0.941135 2.000000
-50.343399 142.603104 -809.231873 0.129888 0.736032 -0.664369 2.000000
-54.846199 140.090897 -813.162781 -0.866004 0.463349 0.188004 2.000000
-57.686401 138.671402 -813.354004 0.668929 0.694352 -0.265347 2.000000
-50.006500 143.801895 -810.553772 -0.359994 0.837890 -0.410299 2.000000
-58.544899 138.251205 -822.939209 0.413373 0.837749 -0.356790 2.000000
-57.879700 138.761002 -820.701172 0.597101 0.798533 -0.076256 2.000000
-54.015999 141.509293 -812.452881 -0.355196 0.760671 -0.543337 2.000000
-52.277302 142.619003 -811.572998 0.028474 0.874569 -0.484064 2.000000
-57.827900 139.571793 -818.695129 0.784082 0.591500 -0.187996 2.000000
-55.942101 141.606705 -813.200073 0.032222 0.034301 -0.998892 2.000000
-52.203701 144.068100 -810.470703 0.075840 0.352590 -0.932700 2.000000
-50.546600 145.146500 -809.513794 0.414300 0.727914 -0.546348 2.000000
-58.264702 140.680496 -813.697815 0.694074 0.533517 -0.483343 2.000000
-54.393799 143.192093 -811.879578 0.387575 0.242049 -0.889493 2.000000
-58.617100 140.545197 -820.403198 -0.812819 0.527945 0.246168 2.000000
-60.386299 140.301605 -813.476807 0.416088 0.491147 -0.765275 2.000000
-57.389301 142.721207 -813.427979 0.865747 0.384606 -0.320250 2.000000
-56.180698 143.553894 -812.371826 0.306758 0.535634 -0.786763 2.000000
-54.377499 144.780396 -811.040588 0.226450 0.481777 -0.846529 2.000000
-55.265400 132.993195 -823.553528 -0.164885 0.898983 -0.405761 2.000000
-53.204498 134.506897 -818.888489 0.923305 0.383961 -0.008989 2.000000
-46.228699 138.396103 -806.333679 0.200236 0.940418 -0.274807 2.000000
-41.297501 114.541000 -801.221375 -0.631280 0.314833 0.708778 2.000000
-48.114899 88.961403 -810.677490 0.863838 0.490131 0.116424 2.000000
-50.818100 81.762497 -802.637817 -0.998031 0.011496 -0.061658 2.000000
-50.174999 114.845596 -825.523621 0.832296 0.130643 -0.538717 2.000000
-54.093498 137.948807 -816.346130 0.961840 0.107158 0.251757 2.000000
-49.762299 133.614807 -815.959106 0.011362 0.339592 0.940504 2.000000
-46.289101 127.905098 -813.494080 -0.542218 0.820123 0.182753 2.000000
-46.789600 125.839798 -817.466614 -0.254032 0.752629 0.607468 2.000000
-45.887199 121.443199 -815.764404 -0.001302 0.425734 -0.904847 2.000000
-43.589100 111.642998 -815.065918 -0.082520 0.380132 -0.921244 2.000000
-48.225101 98.259804 -814.654297 -0.503553 0.778808 0.374022 2.000000
-44.426899 107.291298 -816.604004 -0.368750 0.608028 0.703083 2.000000
-47.021999 121.115196 -819.585693 -0.529808 0.712500 -0.460052 2.000000
-45.515400 119.638702 -817.472473 -0.106086 0.556590 -0.823986 2.000000
-41.709301 116.585800 -808.910522 -0.682323 0.682323 0.262432 2.000000
-39.476898 111.170700 -802.049011 -0.239485 0.284831 -0.928180 2.000000
-43.949600 129.512497 -808.803589 -0.383829 0.624340 0.680349 2.000000
-41.859501 128.667206 -805.257080 -0.500764 0.839650 -0.210291 2.000000
-37.056801 115.306801 -796.810181 0.156336 0.952716 0.260560 2.000000
-51.699902 139.393204 -812.672607 -0.447710 0.894100 -0.011886 2.000000
-52.673401 124.158798 -823.522278 -0.890660 0.410961 -0.194512 2.000000
-54.725300 133.660507 -809.691528 0.639558 0.558559 0.528184 2.000000
-52.890202 134.233093 -811.244873 -0.211347 0.965970 -0.149110 2.000000
-49.428398 132.300400 -818.656921 -0.273026 0.876398 -0.396717 2.000000
-52.047199 136.123398 -810.245483 -0.398424 0.294620 -0.868595 2.000000
-54.735600 135.944504 -811.992126 -0.373363 0.274399 -0.886174 2.000000
-51.585201 133.735596 -822.367676 -0.088532 0.994023 -0.063877 2.000000
-55.193401 140.040298 -810.820923 0.470594 0.710048 0.523806 2.000000
-56.568901 139.143799 -811.947815 -0.471701 0.877615 0.085382 2.000000
-51.503101 133.605698 -818.434204 -0.459144 0.859578 -0.224303 2.000000
-51.722500 131.656296 -820.923523 0.624484 0.714848 -0.314662 2.000000
-48.708401 131.412598 -816.820313 -0.066867 0.940078 -0.334337 2.000000
-48.299400 133.518707 -812.392578 -0.293335 0.873926 -0.387567 2.000000
-50.342899 124.408203 -822.511719 -0.780894 0.617417 -0.094875 2.000000
-47.966000 127.272400 -816.854187 -0.301342 0.867314 -0.396181 2.000000
-46.032902 132.770096 -806.189697 -0.633633 0.492452 -0.596657 2.000000
-36.373699 119.154999 -797.678711 -0.310255 0.412130 0.856674 2.000000
-36.659401 122.142303 -797.661377 -0.410909 0.813823 -0.410909 2.000000
-44.163101 113.681297 -807.019714 -0.302554 0.760387 -0.574693 2.000000
-47.200100 109.280403 -812.966797 -0.302554 0.760387 -0.574693 2.000000
-38.133598 123.334099 -799.907104 -0.318837 0.655478 -0.684610 2.000000
-44.069099 122.987099 -806.026123 -0.099474 0.262250 0.959859 2.000000
-53.831799 134.096497 -812.772583 -0.356142 0.749687 -0.557793 2.000000
-60.091999 138.320297 -812.372620 -0.315554 0.707165 -0.632727 2.000000
-58.368698 139.772507 -812.096313 -0.359394 0.752939 -0.551288 2.000000
-61.740101 139.516800 -812.229980 -0.386133 0.757603 -0.526249 2.000000
-134.335800 96.612999 -812.927612 0.604860 0.412630 -0.681088 2.000000
-134.821701 96.010803 -814.557373 0.604860 0.412630 -0.681088 2.000000
-133.276596 98.278297 -812.671387 0.618990 0.035090 -0.784615 2.000000
-132.933304 97.418404 -814.220581 -0.642205 0.766502 0.006905 2.000000
-134.463196 96.170898 -816.322021 0.602751 0.413458 -0.682454 2.000000
-133.165894 97.569298 -815.993286 -0.771872 0.583227 0.253099 2.000000
-131.062698 98.443497 -813.934082 -0.362222 0.752057 -0.550642 2.000000
-134.667603 97.813004 -817.913879 0.232816 0.751574 -0.617197 2.000000
-131.833099 98.700798 -815.540894 -0.541714 0.825256 0.159679 2.000000
-131.149094 102.723602 -812.803101 -0.629553 0.038027 0.776026 2.000000
-132.185806 98.353104 -817.293701 0.189265 0.902980 -0.385753 2.000000
-130.250900 101.556198 -814.257324 0.503654 0.818632 0.275996 2.000000
-130.018204 99.295799 -815.402222 0.142472 0.969068 -0.201515 2.000000
-130.262207 103.586304 -814.179382 0.972321 0.184296 0.143624 2.000000
-130.480606 98.965401 -817.107178 0.249264 0.848720 -0.466414 2.000000
-132.008194 97.874001 -819.039795 0.492586 0.606906 -0.623718 2.000000
-131.447906 104.035698 -815.449280 0.590346 0.408446 -0.696178 2.000000
-130.414307 101.842300 -816.364380 0.650011 0.227112 -0.725193 2.000000
-129.946503 98.080399 -818.575623 0.584409 0.415543 -0.696986 2.000000
-131.169601 96.895500 -820.302185 0.584409 0.415543 -0.696986 2.000000
-129.067596 100.472298 -817.289978 -0.989745 0.037585 0.137813 2.000000
-129.619507 104.679703 -815.694885 -0.293444 0.903926 0.311139 2.000000
-129.223404 103.140198 -816.905884 0.994924 0.072257 0.070034 2.000000
-129.194199 97.646301 -820.146423 -0.343401 0.900507 -0.266762 2.000000
-130.552704 96.514397 -821.937500 -0.170160 0.885703 -0.431944 2.000000
-128.989594 99.717796 -818.913696 0.823112 0.333352 -0.459742 2.000000
-121.308502 79.145103 -836.393127 0.722396 0.389995 0.571006 2.000000
-120.148300 78.762100 -837.700806 -0.446607 0.864644 -0.230071 2.000000
-122.652603 80.268204 -835.691528 0.275654 0.959071 -0.064785 2.000000
-116.621201 77.918404 -838.113281 0.546800 0.749197 0.373783 2.000000
-114.808197 77.212502 -838.845581 0.427921 0.796095 0.427921 2.000000
-124.324799 81.456902 -834.645081 0.390465 0.917391 0.077012 2.000000
-113.110001 77.099197 -839.458923 0.725362 0.506260 0.466423 2.000000
-111.167900 76.318497 -839.977112 0.485938 0.583462 0.650720 2.000000
-131.786102 84.921898 -830.821289 0.390465 0.917391 0.077012 2.000000
-120.039703 80.414902 -836.776611 0.365822 0.152776 -0.918060 2.000000
-118.367104 79.740799 -837.231201 0.837277 0.498706 0.224189 2.000000
-108.186600 75.706299 -840.833923 -0.014771 0.490144 -0.871516 2.000000
-106.589600 75.068298 -841.337280 0.242445 0.965970 -0.090123 2.000000
-127.765701 84.000603 -832.358276 0.701734 0.707569 0.083158 2.000000
-126.378502 83.508003 -833.569092 0.390545 0.917578 0.074325 2.000000
-122.891098 82.177002 -835.482178 0.508428 0.065829 0.858585 2.000000
-114.846100 78.977898 -838.324097 -0.054270 0.853020 -0.519048 2.000000
-104.612396 74.931000 -842.215881 0.578343 0.072828 0.812536 2.000000
-132.583496 86.502197 -829.461975 0.694030 0.258871 0.671795 2.000000
-130.700897 85.905296 -832.025024 -0.146014 0.404020 0.903021 2.000000
-124.771599 83.557800 -834.346802 -0.320049 0.198797 -0.926309 2.000000
-121.047997 82.113297 -836.170227 0.309234 0.354487 0.882447 2.000000
-112.879799 78.816803 -838.598328 -0.375759 0.165901 -0.911747 2.000000
-110.099899 77.708298 -839.589417 0.299888 0.884595 -0.357153 2.000000
-119.470100 82.169998 -837.037598 0.495775 0.244050 0.833455 2.000000
-117.375900 81.286598 -837.220520 0.261602 0.791071 -0.552966 2.000000
-107.332298 77.251999 -840.606323 0.143428 0.243432 -0.959255 2.000000
-105.576698 76.562202 -841.390991 -0.402012 0.260480 -0.877802 2.000000
-130.852005 87.212799 -830.288513 -0.350869 0.544897 -0.761563 2.000000
-129.109299 86.561996 -831.504028 0.792488 0.268347 0.547680 2.000000
-127.567596 85.952904 -832.164307 0.107630 0.944755 -0.309603 2.000000
-126.098099 85.399399 -833.129272 0.676903 0.337636 0.654068 2.000000
-123.205803 84.303497 -834.949097 -0.389637 0.389637 -0.834486 2.000000
-114.610397 80.853996 -837.963074 -0.380564 0.258186 -0.887982 2.000000
-131.940598 88.277496 -828.977295 0.483851 0.860343 0.160303 2.000000
-124.494698 85.487099 -834.014221 -0.103566 0.284479 -0.953072 2.000000
-121.582298 84.378700 -835.776184 0.527547 0.194996 0.826844 2.000000
-112.492996 80.699997 -838.586121 0.956353 0.252647 0.146826 2.000000
-108.258904 78.999603 -840.058472 0.621512 0.424894 0.658170 2.000000
-118.370499 83.751297 -836.706116 0.247933 0.137740 0.958935 2.000000
-120.859200 84.901901 -837.668884 0.541324 0.809673 0.226709 2.000000
-116.752403 83.118599 -837.474121 0.508162 0.835813 -0.207816 2.000000
-106.661400 79.061096 -840.911499 0.393726 0.915987 0.077122 2.000000
-133.502304 90.042702 -826.752686 -0.879744 0.208477 -0.427304 2.000000
-130.403702 88.946800 -829.605530 -0.265664 0.309216 -0.913131 2.000000
-128.889694 88.384903 -830.684021 -0.226016 0.185895 -0.956222 2.000000
-127.329399 87.796799 -831.687683 -0.151288 0.266427 -0.951908 2.000000
-125.858902 87.250999 -832.734070 -0.304487 0.393232 -0.867558 2.000000
-122.689499 86.070801 -834.945190 0.129807 0.514854 -0.847394 2.000000
-114.721397 82.850098 -837.476196 -0.713265 0.315389 -0.625926 2.000000
-109.339302 80.727699 -839.819885 -0.301319 0.235629 -0.923951 2.000000
-132.103897 90.004303 -827.874512 0.770592 0.329794 0.545366 2.000000
-113.070000 82.655602 -838.174072 0.645925 0.527871 0.551482 2.000000
-124.446198 87.571503 -833.854980 0.670975 0.473531 0.570580 2.000000
-121.032097 86.256798 -835.778320 0.644870 0.496701 0.580888 2.000000
-110.532097 81.969597 -838.817993 -0.093919 0.318796 0.943159 2.000000
-107.556503 80.813004 -840.368530 -0.771005 0.038057 -0.635691 2.000000
-119.279297 85.925598 -836.326294 0.497231 0.092080 0.862718 2.000000
-117.051498 85.007004 -836.880493 -0.479809 0.260732 -0.837737 2.000000
-130.482697 90.506500 -828.690918 -0.446277 0.456085 -0.769950 2.000000
-132.440704 91.476196 -826.577026 0.111950 0.205032 -0.972332 2.000000
-129.090393 90.302002 -829.809204 -0.501450 0.308463 -0.808331 2.000000
-127.661400 89.768600 -830.817017 -0.499995 0.453791 -0.737617 2.000000
-126.009598 89.135696 -831.797424 -0.382279 0.237633 -0.892969 2.000000
-122.510002 87.836800 -834.349915 0.391813 0.893686 0.218652 2.000000
-114.690498 84.711998 -837.524414 0.314048 0.137311 0.939425 2.000000
-111.548798 83.444199 -838.659790 -0.074787 0.072555 -0.994557 2.000000
-108.544601 82.504402 -839.937073 -0.535241 0.375808 -0.756496 2.000000
-124.881798 89.346100 -833.215881 -0.985251 0.024199 -0.169394 2.000000
-112.897598 84.551399 -838.279114 -0.028979 0.175035 0.984136 2.000000
-133.346893 92.562401 -824.146423 0.844101 0.461401 -0.273137 2.000000
-120.836098 88.066399 -835.159485 0.012863 0.204638 -0.978753 2.000000
-109.896896 83.645897 -839.363586 0.413214 0.003886 0.910626 2.000000
-131.065002 92.143700 -827.507080 -0.108870 0.544348 -0.831764 2.000000
-118.979599 87.571198 -835.609375 0.281316 0.955437 -0.089451 2.000000
-117.194298 86.859001 -836.406921 -0.472028 0.498528 -0.727089 2.000000
-137.134796 94.527901 -821.521606 -0.262266 0.308634 -0.914309 2.000000
-135.527695 93.860397 -821.970215 -0.406371 0.083463 -0.909888 2.000000
-123.098099 89.470901 -833.702576 -0.059093 0.353243 -0.933664 2.000000
-115.536301 86.442596 -837.016174 -0.361071 0.174164 -0.916130 2.000000
-132.215897 93.061897 -825.549988 -0.711939 0.261626 -0.651686 2.000000
-129.596802 92.187698 -828.580627 0.528123 0.817590 0.229418 2.000000
-127.803802 91.528702 -830.013977 0.015152 0.808584 -0.588186 2.000000
-126.323097 90.967201 -831.014404 0.575823 0.090920 0.812503 2.000000
-134.030502 94.091797 -823.064087 0.289104 0.954686 -0.070670 2.000000
-124.872597 90.887001 -832.205688 0.553473 0.781840 0.287045 2.000000
-121.371201 89.520798 -834.208984 0.601285 0.274465 0.750417 2.000000
-113.743896 86.460602 -837.683105 -0.221078 0.135750 -0.965762 2.000000
-111.352997 85.488800 -838.639404 -0.607994 0.079429 -0.789959 2.000000
-108.495598 84.371803 -840.252319 0.368340 0.915911 -0.159473 2.000000
-119.540298 89.322800 -835.228271 -0.778562 0.119665 -0.616054 2.000000
-136.748093 96.191597 -820.364624 0.406277 0.909677 0.086180 2.000000
-135.155899 95.563499 -821.247375 0.263829 0.952195 -0.154012 2.000000
-132.570801 94.666702 -823.987427 -0.957134 0.067547 -0.281660 2.000000
-130.731201 94.021301 -825.860229 0.534696 0.775551 0.335590 2.000000
-129.805298 93.751999 -827.393616 0.786676 0.557425 0.265366 2.000000
-128.047195 93.100700 -828.817322 0.588272 0.770245 0.246290 2.000000
-123.135002 91.267502 -832.650574 -0.538384 0.442303 -0.717294 2.000000
-117.438103 89.069298 -836.330017 0.506166 0.318932 0.801298 2.000000
-109.732498 85.919701 -839.429626 0.576229 0.723980 0.379228 2.000000
-133.665604 95.669197 -822.318726 -0.313391 0.483473 -0.817337 2.000000
-126.460297 93.143799 -829.714172 0.218969 0.943355 -0.249266 2.000000
-124.967697 92.562202 -830.625671 0.328245 0.944491 -0.013834 2.000000
-123.385101 92.197502 -834.262817 0.233232 0.947931 -0.216865 2.000000
-114.791199 88.638496 -837.289429 -0.392078 0.126972 -0.911127 2.000000
-113.425697 88.131897 -838.393311 0.579984 0.349290 0.735945 2.000000
-131.030396 95.413200 -824.702087 -0.424414 0.600837 -0.677398 2.000000
-121.614601 92.014503 -833.406311 -0.127798 0.137535 -0.982218 2.000000
-120.231300 91.498299 -834.506592 -0.600354 0.346546 -0.720750 2.000000
-118.472603 90.791397 -835.368286 -0.246979 0.408637 -0.878645 2.000000
-111.582603 87.999702 -838.509583 0.365048 0.911905 -0.187535 2.000000
-135.740997 97.700104 -819.354187 0.668186 0.711797 0.216499 2.000000
-134.522598 97.272202 -820.627930 0.339837 0.939396 -0.045225 2.000000
-131.845093 96.306702 -823.159729 0.389579 0.918004 0.074141 2.000000
-129.639893 95.574402 -825.915405 0.397976 0.914123 0.077422 2.000000
-128.371201 95.123398 -827.184204 0.250675 0.838145 -0.484433 2.000000
-127.005997 94.620201 -828.358398 0.367491 0.928607 0.051370 2.000000
-123.615501 93.386299 -831.443481 0.924630 0.250093 0.287250 2.000000
-116.913002 90.836098 -836.360474 0.229075 0.477873 0.848034 2.000000
-125.223000 94.550400 -828.939087 0.423081 0.893490 0.150588 2.000000
-122.288597 93.572998 -832.640503 -0.146206 0.685811 -0.712942 2.000000
-115.957802 91.208900 -837.880981 0.409669 0.908397 0.083578 2.000000
-113.162399 89.941704 -837.793274 -0.032808 0.053975 0.998003 2.000000
-110.872704 89.090202 -839.726807 0.345078 0.918787 -0.191710 2.000000
-132.639099 97.856400 -820.728088 0.132718 0.931759 -0.337951 2.000000
-130.181503 97.014999 -823.634888 0.655492 0.671839 0.344910 2.000000
-124.187599 94.936401 -830.436218 0.773444 0.467323 0.428244 2.000000
-120.779999 93.691101 -833.612671 -0.134188 0.824298 -0.550024 2.000000
-119.557602 93.252502 -834.840210 0.430553 0.061119 0.900494 2.000000
-117.998398 92.614700 -835.554871 0.632829 0.713341 0.301117 2.000000
-114.380302 91.119102 -837.046326 0.622628 0.185106 0.760310 2.000000
-133.750900 98.934402 -819.008484 0.487593 0.196537 0.850662 2.000000
-128.740494 97.189301 -824.691284 -0.079920 0.984095 -0.158648 2.000000
